ply
format ascii 1.0
element vertex 705
property double x
property double y
property double z
property uchar red
property uchar green
property uchar blue
end_header
-21.975252489613172 1.139517949565342 -35.330372460456914 33 27 23
-0.080352068731198 -0.756433185867796 -7.541954771487093 122 118 109
-2.334759418799291 -0.746621413223282 -6.874957200956501 137 128 113
-0.961550483202028 0.881909166208602 -21.477632194398613 39 26 25
-15.420869364281467 -3.231422723931005 -33.740280209378270 132 130 128
-3.158592597684733 -0.683517651649598 -9.054974327591649 134 129 117
0.052927798053470 1.836753819477694 -26.438535415890271 18 20 19
-11.527853907601633 0.199525417738172 -21.614324362382600 63 74 54
-9.821018525352859 -0.132777267152067 -15.661133084174805 48 54 38
-27.340804714095636 5.831627131326449 -50.158198655548411 31 34 29
-10.967912725426830 0.249238495736228 -21.056029125649328 58 81 48
-6.431233175645363 -1.422089130668984 -11.188191027519537 79 80 86
-2.578378617744253 -0.775110675323717 -6.536126821751809 146 143 136
0.372853471467559 -0.611287046255626 -7.616011576764809 130 127 117
-1.216894965028547 1.671641607196944 -20.547092176905693 37 36 37
-24.829625144462788 2.163768870877126 -54.038532350155052 21 24 20
2.614919719795791 -0.647453602413755 -10.533597265515205 129 107 103
-5.715259431352662 -0.351217032814469 -15.505282015431911 77 81 88
-0.159985313420405 -0.716396530703543 -9.535823601873876 136 146 124
2.524279941748762 -0.238739882870093 -8.181430254751090 127 93 92
-1.262685303359170 -0.698318217023067 -6.102072018241469 129 114 114
-1.296341324461999 3.953135696602899 -30.525386120559507 23 30 27
-4.464687226457355 -0.521253267671218 -14.150153152883252 150 144 137
-1.887660556305105 -0.672887071307639 -8.246417298494681 126 128 119
0.186387071029837 -0.202445374770745 -15.901625095682265 150 146 144
1.096063495783145 -0.701899678700901 -7.251240168567201 130 124 117
-37.137825954069527 5.058142321856158 -63.639448407996618 19 19 21
3.440494529228607 1.725968559041378 -10.806589992467387 23 24 12
-2.042499341861883 -0.761957020991447 -7.213292560773770 126 117 112
-9.583963948555514 -0.118020763793417 -18.701845282152597 54 58 60
1.804592213034483 -0.662835726292090 -7.902289807055731 117 111 109
1.067140397900100 -0.260618183711836 -14.588251782153684 126 113 101
1.781692956211435 1.936837681391256 -14.133357084575895 14 15 12
-1.033211025595406 -0.578448437418250 -9.751491321397809 143 149 138
-5.172009524974205 3.576238455189090 -46.439182414065229 59 44 34
-10.807456529803954 0.159925292761579 -21.842422337188090 61 70 51
-0.091413705956807 -0.578117573406945 -9.951191776767931 145 140 137
9.177809793833971 -1.637005334893950 -18.107504724772358 94 67 64
0.355813635552929 1.736717543145651 -19.036388743731337 16 15 13
-5.720120706604051 -0.230611770930871 -16.347435178791965 62 66 75
-28.865145900285182 5.365244034255394 -42.091670090316065 22 29 38
1.188538851227733 -0.347017909172181 -9.486873478143481 116 100 98
-2.662066017530481 6.249015901488236 -34.615859816294247 25 32 22
2.548567389185267 -0.532037537962520 -7.296586959905593 109 87 76
-22.759516667076980 6.780883388026539 -45.381899586902065 31 28 23
3.316221504282036 1.816297728484657 -8.977819669191172 18 20 11
-34.010440801125398 -3.628913122638153 -48.669917410702048 57 58 50
1.130933109862625 3.056482901093226 -17.269763691926357 30 33 22
-0.831184456348235 4.132336925539521 -29.456778041411322 15 26 30
0.991099583324620 -0.111780389352097 -16.949332937773768 125 111 96
-0.679917922048184 -0.704317241996562 -8.035606095683926 123 120 114
1.402780523060176 -1.214265624067575 -18.369897939252709 114 113 113
-34.558562858642141 3.476214521901363 -86.376121149259191 29 31 28
-0.009058039011713 -0.771768549198560 -7.782146916632772 126 130 118
1.839541164445598 -0.477641519144470 -11.678151608006546 100 93 87
-27.246669801537674 10.882975944368747 -60.476399478667453 29 36 32
-0.767016239114131 -0.369606658458886 -4.013843926463873 102 105 110
2.189598002929527 -0.261266831131264 -10.346592814160998 93 75 79
-29.069620130936350 5.960045864256053 -63.104602512588933 29 21 17
-2.861050340216028 -0.809184981424369 -6.783036298203025 108 108 106
-0.646130679324415 -0.647300970829363 -9.285204681357875 143 133 117
-1.712531859613042 -0.744677586128364 -6.933266559262663 134 131 125
-24.991562442098207 4.807914351000049 -41.847028159041109 44 36 32
2.028166924086420 -0.675851048331045 -7.509594453244580 117 108 104
-12.292117797240776 0.419804372293731 -26.279249319927970 62 88 56
-1.673241676785799 -0.655962507032329 -8.839798113727484 120 131 125
-0.444414737732022 3.109804607895848 -22.737569858809387 25 22 14
-8.159967634156928 0.561327744123889 -42.625311723081190 144 148 149
-1.313099903707588 0.481832882558347 -15.583970336799611 135 125 124
0.360060784090571 -0.818551955200887 -7.021331340121788 137 135 119
-0.939733557179886 6.309676947332416 -33.319369927992710 34 35 34
-1.195092778215772 -0.747599461141042 -7.392012541920385 114 114 113
-28.551318530012789 5.301794228860919 -43.481259742524834 35 37 46
-11.785535308257128 0.212712974187328 -21.924266587724368 54 72 47
-27.283879756301872 5.687003290091968 -45.762914617561741 46 42 37
-0.837728782901557 -0.582812303846573 -9.829595453173489 138 139 136
-27.632330569099551 4.730712443281512 -39.897999639253932 43 51 60
-20.452028386882052 6.655874326327055 -33.531728020158127 225 255 255
-3.716984798398785 -0.682840284220696 -9.418527787796583 156 142 135
0.641617515298361 -0.683694893023765 -8.425815249951228 125 113 104
-3.211849883458867 -0.620702022633560 -10.046141656519822 137 138 132
2.128915293930588 0.124521871964910 -11.042328112254836 135 114 102
-10.969015819855294 0.052752803103112 -17.578611967633698 68 68 40
-0.071984198581962 2.497346786430849 -17.429670053667568 14 14 14
-3.550189552355377 1.451496566850921 -7.886699346543316 41 41 33
-2.406739039326455 -0.752468637479817 -7.180613929654825 146 129 123
-0.791827692083378 -0.350882119925204 -15.584483934761641 157 151 150
-11.867005714662042 0.333453718817902 -25.772259419260440 80 81 42
13.638564025321132 -0.588495654835067 -28.499876392651611 72 83 77
-9.118920175428034 -0.269392040837677 -15.042239421879618 65 64 52
-0.088910825227670 -0.820157578268564 -6.945544173559574 118 105 104
-18.734184106882829 1.061022758177816 -45.759922399037748 64 82 46
-1.101519775451267 -0.629599795843982 -10.073091205095333 137 130 131
-0.220480536889770 -0.692148695874983 -8.528991389280591 137 127 118
17.813987877075874 -3.335328616002225 -63.987208190138666 117 97 84
-0.765475062951333 -0.315325837532241 -15.001303720594194 153 131 131
2.594473411044648 -0.698160530550861 -7.172590600856226 98 85 70
-1.641380518555514 0.108372941514074 -7.732423575169907 108 94 79
0.928940472097019 3.915437303077346 -19.073999591497895 34 48 27
-1.485664503653022 -0.754582562499833 -7.023179629477487 135 131 122
-0.982652715988543 6.437184981477920 -33.624182419427150 25 25 21
-3.774039811311305 -0.748930201467265 -7.107488689801548 68 71 63
-15.021438804644331 1.161800622645298 -51.502396372534783 21 30 46
-4.652956625519773 -0.037194995134582 -9.710476198425599 63 68 67
-1.834770639438632 3.989118305480356 -30.106669147993916 28 32 31
-3.718276196187199 -0.720406108418234 -8.794832819530141 131 130 132
-1.825020077340311 -0.582216465915028 -10.747538752990623 119 121 119
-1.039418927776273 -0.691178177865673 -8.722213976463834 147 141 150
-1.608116713696995 -0.306799480865225 -5.202530597742721 148 143 141
-1.668483734438182 1.568885055898432 -20.326465405212868 53 54 36
1.998478688338669 -0.528693566987596 -11.008483976215690 99 90 74
-8.198056225998162 -0.258664496326997 -16.501717173955257 55 68 74
1.013774934125522 -0.718213234145122 -7.127958473762377 121 115 119
-25.536491116755599 4.776400192297556 -51.259748108537224 20 32 33
2.562655694057189 -0.357457739422978 -8.006581641087413 146 110 100
-3.808884395322326 -0.679599327111700 -9.806043493660848 145 138 128
0.940318637955110 -0.721514348044296 -6.994147742293345 137 124 114
-2.207362646709482 -0.757567987483603 -7.111276738095464 115 115 114
-3.324276378660131 -0.643466938012765 -10.012540627020163 135 132 129
-0.676355531921506 -0.705264896902146 -9.266024525194194 120 116 107
-20.220548268029081 1.354726266728965 -36.006679586895373 37 42 38
2.630833022033367 1.914385301708248 -9.799010803107489 32 49 30
-38.141526009294402 4.669470893981347 -64.669002852755071 22 24 24
-2.076884505068974 -0.670037380941717 -8.341383565830117 132 124 126
0.207384184642237 -0.397107245394736 -5.573415369121048 125 121 117
-0.450954527426728 -0.742829256038818 -7.571491114671614 117 110 118
-0.869456721240322 -0.758292780911220 -6.989588837105044 116 116 112
-0.027469932923190 3.918119294924712 -19.483130272064827 34 43 33
-26.597211699897375 5.810336693055342 -55.241904333561074 22 23 18
-0.175036139690218 -0.684200086914153 -8.879764887851698 136 132 128
1.859448419234645 0.400166710148714 -12.745750379832256 97 63 46
-0.595063176922161 -0.740550976690952 -8.164846986646024 130 124 110
2.620214423538999 -3.553379244096213 -39.017168548411071 128 118 115
-0.055960699244668 1.999020089504537 -26.087419022899859 30 33 26
-7.405079795351114 -0.398885946042374 -13.094087071455251 70 74 76
-9.739905015824030 -0.101574225335815 -15.794257738805419 50 64 45
-4.098122798949791 0.166455457727986 -31.368904634064279 134 139 140
-3.665388308184080 -0.634588415824305 -9.590911279459210 154 144 139
1.674763351437540 1.770755187947164 -14.639693621775127 18 27 21
-4.672295296005831 -0.593470067459755 -9.028211009337177 74 79 88
0.088283414163910 2.703075062357720 -17.668401223761929 38 40 25
-3.077136957533547 -0.673043729586274 -9.151908407255355 144 133 141
-2.262477835669076 -0.689713708790499 -8.557724730626404 127 120 119
-0.793390861560312 2.818206646218938 -22.466034569714250 21 28 18
-26.950939590548327 4.578956990394018 -47.452773230070925 26 26 31
-5.861187044148499 -0.418551303272010 -13.898239999742749 88 80 78
0.453498459022273 3.264732156773450 -17.691937654671992 27 35 21
-6.442446609033310 -0.421965266730477 -13.507224766862832 81 85 76
0.607177303185250 -0.567909043494015 -9.831036353313309 116 109 97
0.492112762660027 3.909278045937510 -19.673226114135389 35 32 22
-1.545899476515441 -0.705887914222324 -7.426395001379439 109 114 108
-7.157291875277164 -1.683245664050553 -12.250409913377357 34 38 34
0.777905938762642 2.308456989325785 -19.677538810201906 26 30 21
-6.196645769778775 -0.300360638411869 -13.869070599288037 56 69 81
-1.196165113667205 1.526055519908468 -19.503217173096417 28 42 34
-3.734085799145211 -0.651613622087641 -9.691649903831513 142 137 136
-4.124579044048056 -0.786712220462711 -8.101994926676181 61 68 72
-1.333144692263289 3.005297880502705 -23.759621275180606 24 32 25
-1.990322501842991 -0.773808769284210 -6.662485048836365 128 135 123
-9.207994527170555 -0.079924244806512 -19.052936243364190 72 69 70
-0.000125425309198 -0.798886464654193 -6.836879545995932 120 111 114
2.571138218864257 -0.029663449720978 -7.277951934490739 115 89 69
-0.019262134377015 2.844949529232100 -17.770183099992867 39 46 33
-0.955433947096724 1.851497178632612 -21.776043493442039 30 35 21
-0.025065242264827 1.970259249481409 -21.821035721498831 27 36 25
-10.387874211372571 0.058640568406378 -18.500731577207748 48 62 39
-1.462833839228038 3.510062893503478 -28.256000503463898 16 15 15
-0.835117331617701 -0.574634705036148 -5.366034156389558 159 125 118
-1.669508722505151 -0.606435445876167 -9.846074414032870 134 139 131
0.724315844814817 -0.522417752902810 -10.514939765709693 128 114 113
12.855719887224696 -2.382991344075605 -25.860983913887004 91 77 66
-0.239216072758224 -0.655710653599090 -9.995888590072193 146 144 134
-0.130312803862610 -0.604044721114787 -9.893716754586590 142 153 141
0.783308710726422 2.830009520313138 -17.996115090187441 25 24 14
-0.706999975701527 -0.801054539951391 -7.526600522079737 118 116 121
-2.438135099817442 2.598680431804663 -27.706311526295416 25 22 19
-21.210703438976857 1.296252379538532 -34.622423544379615 34 39 31
-3.790565955501665 -0.710792017831828 -7.569464419580259 75 67 67
-2.177556547675849 -0.362427621120282 -13.874462353002492 118 115 109
0.524052313532561 3.101353167117384 -16.914903519507003 17 20 17
-2.454616100685612 0.569570383533917 -20.629175039938730 174 170 172
0.719302680968017 -0.672096311378465 -8.300056024873694 104 107 103
-1.877372858991143 -0.759282433324639 -6.553107483969975 121 121 130
1.129454357197641 -0.677115350605239 -8.028040523184236 122 109 112
1.042240259671118 0.410229007274795 -17.232858943511662 109 96 81
-13.247026434297261 0.837681536572797 -31.789546055105781 36 42 52
-33.913640145998635 3.007938830157987 -57.302949709001624 25 29 37
1.170190007630182 -0.351890316038163 -8.979068420511261 115 107 115
-5.620296995822803 -0.638358757125670 -8.818756288798008 60 61 62
-13.194881310149725 0.550504405327327 -30.447431776795014 62 90 51
-1.589533176042583 0.097752254745215 -20.176828223123149 163 158 153
1.931881094464400 -0.620920023489582 -9.124381925319788 103 98 93
-9.763742714504899 -0.073249342779313 -16.738100589730699 42 50 45
-3.908784292065727 -0.646713881350579 -8.732199248313743 77 72 69
-9.801771712780894 -0.153165241703213 -18.236845496314920 63 68 71
-3.334313789340434 -0.763099121361350 -7.397475996868811 140 129 124
-2.910465131600150 -0.501909089842372 -6.516327982884871 86 98 96
-11.048667755782814 0.112956097427830 -21.602166258246786 56 60 41
-0.075332781854375 -0.285170649014909 -3.577616958541313 134 123 123
-19.752344951462430 1.255269856311341 -34.344767383257341 39 44 31
-3.749112125703030 -0.688852986078632 -8.392967313916477 69 68 55
-12.523011249125350 0.290335521799453 -23.711905354960283 50 77 47
-6.215602291947163 -0.096886091707261 -17.197273449691178 73 82 91
-2.591404015259921 0.061927601901747 -19.543485204706716 133 134 137
-25.920309193567942 6.076221420906110 -51.277094771141641 24 26 20
-1.184388880964341 3.150001443460867 -27.157850122906275 31 29 22
-1.530578074862869 1.637941308331444 -19.094934869024737 35 33 28
-10.494151517299803 0.180010726561211 -21.480490326919345 60 66 42
0.502266008941775 4.270708379116361 -21.137346668634844 27 41 27
-11.854823649449537 -0.022581412066058 -24.266557329936262 63 73 76
-4.831050270284665 -0.306314771704174 -17.985131199313475 159 147 141
-1.881360519928628 -0.766067156783599 -7.134472346847365 133 137 129
1.303941279565230 -0.660663247381476 -8.108079126124814 135 126 121
0.770038668291816 -0.542479446595965 -5.597967081790966 123 114 115
-2.084488265208987 1.125191420840219 -6.167356854237442 213 255 255
-1.063163421506282 0.085079627214901 -5.459492998275587 169 160 157
-21.956392142224022 0.130807833796551 -75.564431337738895 98 82 79
0.250810000787126 3.991384473520030 -20.184491329198746 43 45 32
-2.406440317175504 -0.666412951837531 -9.213582618721464 121 122 112
-22.403120159865395 -2.276291803151093 -33.877416202901159 77 79 76
-28.574229172834826 6.330796120063879 -43.308000594950897 31 36 47
0.880531880840833 -0.603553300763681 -9.264689125588365 124 119 114
-21.497339329270954 6.682165585687825 -45.330092266668750 28 33 27
2.086940257060299 1.657390646561483 -14.541145018302942 26 32 21
-19.704160123311404 1.075945289431888 -33.237918226252788 24 27 19
1.054860431030028 -0.692376846276883 -7.132804263013637 128 121 111
-1.072966635654809 -0.703104601966873 -9.114586510078809 136 129 131
-1.639126720745641 -0.642428176319327 -9.352500672960773 121 125 123
1.548739338640474 -0.659426612339746 -7.738412156311297 113 118 114
-2.409319524840856 -0.733145795933460 -7.516596779219722 126 127 119
-4.494532679057251 -0.424180096132772 -15.470698891459042 151 151 143
-1.490939855488575 -0.551449834970389 -10.794392424532719 120 123 119
0.968318364645597 -0.533930997578348 -11.036471154015713 126 122 113
-0.660047989255042 -0.769741204593251 -7.090591638876458 136 123 130
0.528291700615034 0.013683325494596 -19.409117592116900 138 126 112
-10.606467794402056 -0.008551607980428 -16.529491009383666 45 63 38
0.825808534144952 -0.541936158416675 -10.971694367923714 139 115 109
0.864722873949437 -0.580956401777667 -9.202977363183473 129 117 110
0.959759694525530 -0.636686129634992 -8.373595090664718 128 119 119
-9.505210283062327 -0.330846940959124 -15.008658812395733 52 64 75
-18.900925639801120 6.132257445039284 -31.812520012271452 157 210 245
-1.765325157408614 -0.754505475213540 -7.371287878596383 114 127 128
-24.725636553182667 7.976073813268727 -49.415592685694257 28 37 25
0.851542986836340 -0.696190374352128 -7.778186156785291 122 106 102
-2.940819490119456 -0.743630363488933 -8.068893324612557 142 135 132
-1.458031664279104 1.376875296903604 -16.882334438667311 46 51 37
-6.523274199831684 -0.118873878677690 -17.691903082499081 86 84 80
-4.716102266482263 -1.128370159909337 -9.039374717822692 123 123 123
1.287370447588289 -0.698303974252875 -6.980076361252725 113 107 100
-2.489341265654681 -0.787008705511313 -6.602614879064049 139 134 122
-0.156587203476910 -0.637081757803727 -9.607552431689305 141 146 134
0.166327809097184 1.644820607601072 -23.013913456679465 38 27 23
-27.039923550045344 6.574028234005025 -47.170414952895854 35 30 26
-3.569875401013193 -0.719453584607126 -8.790115887383408 131 133 130
-20.843586927283440 -4.749276899278383 -35.054137837659745 68 82 82
-1.106404145901615 -0.775924266720595 -7.516817105472025 120 121 114
-30.181974172723763 5.132450280731101 -53.431242814240633 25 30 31
1.876429114893353 -0.563870078994444 -9.619849623916165 99 92 80
-7.147069058776950 -0.925000418248740 -13.023779388538127 52 58 68
-2.181253185891021 3.111227628608770 -31.392578293543217 30 27 33
1.474323083764300 -0.879685764876646 -12.937759009028797 130 110 107
0.845674089895644 -0.719940380374816 -7.186190668549673 111 107 108
0.633406900209324 1.904323754986337 -18.500032826223130 15 19 16
1.848306868164820 -0.538980104957835 -10.246352310100885 110 95 82
-2.916405162701979 -0.799096589751710 -7.095490200236173 125 119 116
-33.919627231970971 7.662476021942596 -56.212059043343373 26 28 35
-40.166654209108486 5.057166752294856 -94.248732933078443 15 16 20
-3.158282908538695 -0.644877661635587 -9.627209529127779 138 137 134
-5.052457841582714 -0.663363939671386 -8.572308023188377 62 63 63
-8.285080557569161 1.320084080712455 -65.970724674719634 147 150 151
0.630137686940674 -0.352617389532025 -11.154480295256471 122 113 110
-1.521993883605344 -0.551409922197142 -11.512827126925769 135 135 136
-2.999786169148539 -0.708516617112294 -8.549879213950080 136 131 122
-3.322083248987039 -0.669271955571188 -8.718514705076144 148 136 131
-1.076251341012443 -0.550244465322913 -11.521785022683545 126 126 115
-1.402460248057717 -0.003150554446028 -4.010931435392632 85 86 82
-21.779875562210474 2.413197878276441 -35.069302890576424 18 23 28
-11.296465375010937 0.105250849797768 -20.499679128751946 59 72 42
-2.839794235025195 0.151558951061496 -27.569087841862945 147 146 146
-25.503095313150769 2.253263480649792 -54.881731413956032 22 25 25
-2.717581948736172 -0.598784663287795 -10.363977265923081 143 142 128
-25.103489756526997 1.983568106043875 -38.001256210990377 19 15 20
-6.588261920345640 -0.443293089262496 -12.429050365941151 77 80 86
-1.931653921330796 -0.738353827223747 -7.512791744182715 134 125 121
-1.254611004572223 -0.577047490287392 -9.717406099077905 149 138 129
-2.556139506616128 -0.619549414318803 -9.374566670420029 149 143 133
-27.760191869378339 4.705665441528200 -48.257636059027355 24 28 31
-1.141637841791726 -0.776971032958143 -6.541210570423286 118 109 104
-2.175294975972853 -0.546727027270488 -5.516466178893433 133 133 134
-3.198214613190664 -0.758352428067461 -7.758164050171247 144 135 129
-13.551378017747753 0.962439750931562 -54.896464018362614 90 82 76
-3.682758029862036 -0.766973353459409 -6.612074364730733 75 78 79
-1.698179886947804 -0.759910556624050 -7.061512032995714 117 121 123
-7.980869348339862 -0.175043629897470 -19.350158673383767 80 82 84
-20.840173129206384 1.219124141928879 -35.402815028218690 28 31 25
0.863536656818005 2.397665245904211 -18.455366801647283 26 22 17
2.505206801163715 0.071347110786838 -7.050930198788238 53 32 32
-7.102828816402832 -0.459625184482691 -11.860290221978991 58 64 72
-26.828130086920940 5.544271390426416 -47.317025924170430 33 33 38
1.928108793856729 -0.527299643062739 -9.884729588640720 99 86 75
0.594217772388744 -0.355293604686098 -13.499471044427011 124 110 110
-23.867026531125990 1.627270853567038 -52.905565502419790 34 29 29
-1.016113085671941 -0.294962921010017 -18.129984389531135 166 156 149
2.228497866305567 -0.561527330030939 -11.425059131679593 126 110 88
-1.077462324663658 -0.771307668493412 -7.323099287010603 136 127 121
11.184335230115073 -3.813040420222139 -28.281724147936856 106 100 88
1.292809198130433 -0.693922537555529 -7.696120838481007 123 120 117
-6.842056374087709 -0.389632062082070 -13.745297327641516 84 81 82
-0.863013199856931 -0.220935022985074 -13.649126219513606 145 148 135
-1.163195768838161 -0.700081526272732 -8.720763478360334 118 122 112
-26.603045298685050 2.045186758024545 -41.993778759895385 23 27 28
2.562317652573813 -0.446215578436348 -7.003202771330463 96 79 70
-3.002247102237540 -0.763939206064435 -6.999059822639238 130 122 132
-13.378873985197147 0.498890520317576 -35.380844651235826 35 54 67
-1.368186903505250 -0.578368439182302 -10.278842732099806 129 123 123
-22.220254962745706 1.185980751595870 -36.708073184448530 22 27 23
2.122258696233650 -0.710106447584459 -7.295319684715505 109 110 102
-21.951676985119640 1.959554983863262 -42.561998231048143 14 18 19
1.033066050574756 2.624509585093056 -17.483672815162986 22 25 17
-7.168453376908353 -0.506080963732721 -10.976831026039534 71 72 75
-24.487600911420596 4.624818864909271 -41.364893492330182 42 50 54
-21.165803315013090 1.339205312905705 -35.702773398527384 36 39 33
-1.034693618287286 -0.753664795673583 -8.120644503522181 128 123 126
-14.566462930639224 0.926455706005937 -37.283065696499712 64 84 55
-30.876278475696804 6.414790617172262 -53.765668154260652 29 27 32
0.603195234491153 3.396638061688928 -18.844940511451121 33 27 18
-2.947730612448144 -0.676599034165359 -9.318454444779627 143 140 125
3.202364089778269 -1.875092119638705 -18.228947193723329 121 120 106
-3.515454673619135 -0.403866152919627 -16.645684706712526 143 140 136
11.298285898003737 -1.873770324261693 -22.968082689344413 84 67 60
0.406400860373858 1.882465580493903 -19.535074350290621 17 18 16
0.584579860667635 -0.497848744682992 -10.531125122506664 137 120 119
-1.622481220754353 -0.686489873458310 -7.853274874438999 119 126 117
0.283719649590003 0.148789990701542 -20.671723210768718 161 149 135
-2.894173356148528 -0.668773648321799 -8.994827272679965 142 136 125
-2.409441776441828 -0.691672295968153 -8.573981999487197 132 133 125
-0.336314081062513 -0.523269026344315 -11.270460870235116 154 149 134
-4.041487656843022 -0.616196015136190 -11.281694144298276 149 142 133
1.317246143627308 -0.050705156326972 -15.393175816583424 41 41 44
-2.431508125629807 -0.684667673576369 -8.493353817132542 132 137 130
-14.270344541482290 0.953437196561375 -36.819589061744992 60 74 43
-2.644184411914242 -0.656170818901769 -9.072091871288293 144 135 117
-3.481414372332258 -0.721448709204702 -8.446426194987552 132 128 128
-1.759043903777872 -0.725339073777204 -7.566418842937345 148 135 121
0.270098100556522 -0.280545747623289 -14.369471170631412 132 128 126
0.292092906278682 -0.436607805937306 -11.142405965258357 117 116 119
-13.914844012593063 0.921418324961772 -55.897586411368202 80 81 77
-3.571865108636815 -0.652258447825794 -9.779599479699510 150 140 136
-2.964810059700295 -0.576699096041120 -12.010583594293307 152 144 134
-2.007434933325835 -0.431508386023115 -14.298321763386488 128 122 121
-10.518122991415424 -3.203257812220381 -50.007504749258239 138 142 131
-38.369049986655639 3.551121926434313 -65.059712343112153 15 23 29
-1.481713872764988 -0.647118046091975 -9.549366738015815 128 126 133
0.838129866343106 -0.505294930541269 -11.451356161188496 122 123 115
9.269259226423889 -3.216639887759463 -29.631291395686244 118 98 93
1.164355552128148 0.546021203290942 -18.936421317437617 112 87 71
1.186995217341069 1.804510537482976 -17.027683948644139 26 26 24
-1.394781693771721 3.232735124108446 -15.596316420898113 194 253 255
1.896029854791941 -0.649817416393705 -7.972284052665068 125 124 116
-27.867740817845810 4.716316435672404 -48.616122218466600 24 28 30
2.077795079897744 1.743656257075819 -15.023754585468835 16 15 14
-9.420753164171428 0.410382649021814 -34.400299918874850 100 87 77
0.198090037661588 2.486952421127947 -17.232016772456401 39 39 26
-20.612160707256955 4.936359273564572 -33.689910104622783 23 28 34
-5.704704351281341 -0.485285660045749 -12.622628538360127 63 59 60
-2.956493776896347 -0.750743629808504 -7.300106198411432 134 136 128
-2.956117873614300 -0.570265733298987 -10.218403546255127 148 137 134
-1.353034068921675 4.295827809337250 -31.890152775798121 45 44 32
-3.214959569250667 -0.740263587816489 -8.104711537738535 120 122 121
-38.246150485477443 -10.994777102729293 -89.790054373713843 117 115 110
-5.743751573158571 0.025611486060332 -25.296236080213639 167 159 156
-9.508931467705686 -0.140793253883015 -14.153131522280228 57 77 42
-2.204582622799808 -0.762514994471096 -6.618630913027127 138 124 128
-20.691969674150048 3.796759802523675 -33.882115440259504 23 25 25
-29.420449294988082 4.966137184334325 -50.139451132564965 24 28 33
-3.074033316216725 -0.709555296830273 -8.558447706677089 117 123 114
-20.851189053552122 3.316816991807432 -34.142911257094532 18 17 18
-13.846909399662785 0.877991742071365 -36.021657649096014 65 82 51
0.098113220228877 1.982726211816125 -19.459973657074645 22 27 22
22.154575540212676 9.489382298805033 -46.215831269342836 9 17 8
-2.348776445000166 -0.107847188389952 -14.227218497392112 156 153 143
-14.943109797696968 -3.941845875891774 -30.772028526685542 119 109 112
-6.742858538477056 -0.376432430648857 -14.549059142263829 69 69 76
-0.153050413171585 -0.764263059058134 -8.140823610274527 133 134 124
-2.783007865968375 -0.671227444264800 -8.765441272431405 139 137 123
1.111304216221778 0.141145134474026 -17.460267067432927 51 51 53
-6.871831414271377 -0.190263234713150 -21.495107386027421 82 84 85
-0.574745950448249 -0.749754388481657 -7.986051818746729 119 126 115
-0.179142241626583 -0.742492780602187 -8.577043075361504 129 128 119
-5.011749678090017 -0.631703731813357 -9.291888372401999 57 51 51
-1.435839304078054 -0.597403184635993 -11.030706592360618 137 129 130
0.305035279686237 1.843981139477368 -18.473660380352587 15 20 15
0.686458605827619 -0.538515795902085 -10.427700332250607 119 113 106
0.107260582750315 -1.164411576335269 -9.921174327903410 112 123 122
0.461263818210095 -0.472940065451645 -10.983951806718522 138 132 128
-19.369574680332160 1.535990592978364 -54.841306478540488 23 33 22
-0.176446217821784 -0.105273971777423 -2.506150801481428 127 122 129
-19.280732299328662 -2.866370009608627 -30.452811342928044 50 61 66
-20.580923276304645 1.255677684931726 -36.378911384621027 30 30 22
-0.539954138829711 -0.574534882204650 -11.073271076138068 133 138 127
-4.702999742470728 -0.629446198572776 -14.162914102987958 154 143 139
-4.955305670999012 -0.670994315722407 -8.668266520073891 66 57 54
0.983886695615351 1.950268787961867 -18.565830635546664 36 39 27
-2.172110090238746 -0.735508896910403 -7.478523154616119 126 121 114
-11.178354418343229 0.139302494325285 -22.263991550306809 62 67 53
-2.901395057900943 -0.660559330009369 -9.232519786360488 149 144 133
-3.692872231461479 -0.381939521112782 -15.767375266905480 144 138 137
-2.475002635644535 -0.663174350230096 -9.589574519215345 119 121 118
-1.536824786762380 -0.694146995566978 -8.017805841437607 118 119 117
-2.044598344170881 0.184471758090854 -9.006936064263453 60 71 82
1.365506634473345 -0.522362690796072 -10.556321187594335 119 126 117
0.253315896742526 -0.464615322452115 -11.518384746131069 123 118 110
-3.954466480297986 -0.419393105947857 -14.615116194061150 138 137 136
-3.671813660436595 -0.650251055398526 -10.311392737243624 137 130 128
-0.443879532626015 -0.223537164291906 -17.176392434140862 152 146 134
-6.960760851952337 -0.448003919192533 -11.176626986983740 74 82 85
-36.710001728639625 4.699773568806491 -63.246790781591194 15 17 18
10.862571410672405 -3.532024272942322 -36.299432603726110 102 99 91
2.604990820934046 1.860055962049691 -9.893695890455520 40 55 31
-2.701556952935735 -0.664246809493635 -9.172375735848680 133 130 126
-2.053056710148884 -0.688804685692541 -8.799776173989107 133 130 126
-30.716539661490501 5.996656118942334 -56.572465139804741 27 30 38
-5.796972164258428 -0.456627685084476 -12.207157198472153 61 65 70
-9.087540855593208 -1.113051578737978 -17.245515699825063 58 55 66
-2.259906940962796 -0.779943708049473 -6.702520355023386 137 135 121
9.745679534301472 -1.479784967072610 -23.281969689187658 101 85 77
-2.237280061676482 -0.738606112172021 -8.204541375491532 123 126 119
-0.882771889402579 -0.829818671979313 -7.795753416737255 121 125 126
-2.344690318133651 -0.471412715019471 -5.558317965029507 128 131 122
-2.556502177236907 -0.710810710522129 -7.873652185605891 135 130 131
-4.927355747827081 -0.646567810174263 -8.844506136074431 60 56 67
2.104714550611790 -0.714269481011745 -6.772294038852119 101 100 100
-2.059369498837912 -0.568117417429739 -11.797788307459488 129 125 126
0.476189039240880 2.986551382537758 -18.396269027275988 33 34 21
5.618658161920256 2.679331007759617 -12.884148802822898 10 9 11
-1.980722778250378 -0.509454816931242 -14.852801506755434 142 142 140
-21.980430135012401 1.698142141270227 -42.619149862345871 14 19 22
-12.337996909165019 0.435024672384684 -35.782918043798944 72 68 61
-0.658744402270850 -0.589492494992664 -11.133598060793142 128 131 133
-7.081303990674026 -0.308125909429994 -15.454818842490109 75 82 83
-6.749038188048795 -0.383261356075573 -13.091744281382800 81 79 82
-5.689231492001405 -1.175574729331951 -9.392110992851091 51 61 67
-0.202991819837811 -0.325001585099307 -6.211658167244604 132 133 138
-5.930678643481963 -0.327464614604377 -15.822365928327965 63 62 67
-2.975936251408369 -0.612255376803960 -9.251598855306538 150 147 147
0.076649981244771 -0.802979819428754 -6.747332787533862 128 115 112
1.592845879271421 1.642067091614262 -15.011642972963402 38 46 26
0.643109921742931 2.684300365995308 -18.821184706444470 12 13 13
-19.958905748800934 0.998783557167943 -32.470419514142037 17 24 24
-0.951141784044475 -0.695789170228384 -7.669008752374319 122 118 116
-0.117280289156477 -0.740584342487520 -7.561966365163479 123 116 113
-5.359368601155828 12.730309077049810 -59.787675443382163 211 253 255
-1.408508386260184 -0.693852130363893 -9.791365184816497 128 129 130
2.001684787350027 1.808652727679614 -14.463410740741340 25 25 20
-2.966101935376277 -0.312489778756505 -6.533194819487859 80 78 83
-1.662771173266433 -0.745941707361292 -6.678844996990950 127 124 111
-4.466141873596372 -0.473291203628178 -14.846853742184747 147 143 136
-4.808441519090827 -0.287727870488612 -20.450491028956797 158 151 139
-22.125363830944487 -7.020021065155341 -75.298783224324140 139 130 108
-3.842025475468499 -0.274793317425144 -15.985675073674381 153 148 145
-0.433957304507584 -0.673870048852560 -10.453538296692070 120 132 134
-6.131209877477688 -0.429150059385247 -13.349973538180508 73 70 68
-22.437980232062792 1.432794176904645 -38.184238485816294 37 45 38
-3.918320971892126 -0.708437114158263 -7.542001554292827 71 70 70
-34.391514863347112 -5.196419936469650 -53.439571954974276 63 62 54
2.924623285962578 -1.245893090731694 -13.676836737053154 124 120 118
-1.296311738507357 -0.354547719409305 -4.007637821548868 145 137 128
-20.583641073914642 4.618131133185528 -33.645749160871652 27 28 29
-16.282549189410947 -1.742800385490719 -25.217149902525581 66 69 76
-0.764439786446752 -0.601001375701132 -10.513236452693272 115 123 120
-0.789454472603678 0.094335031303404 -18.619965995568151 99 103 108
1.615404737723440 1.412586820212426 -14.382946116131075 45 49 29
-1.310198386106268 -0.749167454348871 -7.338393838010850 126 125 122
-6.321331629609636 -0.176246279865170 -12.968858908264400 61 68 71
0.611387418527702 -0.658146411988160 -9.026613199735991 113 112 105
-1.107255159549630 -0.484596567653899 -11.985288803570793 137 133 129
1.089649874920072 -0.558083908016102 -10.432349820253945 118 118 101
2.455148299889399 0.250564643173450 -7.960704622998710 44 58 44
-3.251848467312165 -0.450210435950721 -13.301435826965047 149 142 136
-0.600819326550699 0.123904272696691 -2.911860593064806 84 91 99
1.125828080375016 2.691964043961883 -17.804062609504832 16 17 16
15.802244706385833 6.783528796133811 -32.032445383020182 16 12 8
-2.984346129855489 0.255473949371526 -15.583735625225595 169 162 155
-1.879392878133949 -0.615806485654774 -9.356499831639512 132 136 133
-20.336428694528337 1.136380929598347 -36.146872563314808 20 23 17
-2.331423139626197 -0.792845635055991 -6.487358785245041 135 130 118
-1.213442300939069 -0.434620021035101 -5.496084233533440 136 124 123
-1.675115260768741 -0.096299658385208 -4.326245296009948 76 73 72
-1.566779419184642 -0.468364900684392 -11.847704097030036 140 136 126
-8.623092211570775 0.012347159934286 -14.396424415268052 62 80 46
-6.037144709385601 -0.512134190369807 -10.856325236336847 57 63 82
-11.014148938455909 0.063073878234909 -17.861030315418361 48 62 43
0.473337870660984 -0.429974657123117 -12.599127386133489 132 123 109
-1.021739917756965 0.193416839794576 -5.003241612616159 74 80 92
-0.840722991313508 -0.674935090201032 -8.741910686421335 128 131 119
-25.148802711563341 -0.432396427555551 -46.251962665252115 68 73 78
1.602632102189787 1.683439646963462 -14.405175243359132 19 18 15
-33.424415160869266 4.324840250469832 -56.669772321195211 20 20 23
2.453055611166567 0.351810509912354 -7.620086758643028 47 58 40
-2.731124939564921 -0.570455819214105 -10.490921906892234 149 137 133
-0.517208986785892 -0.707593882463226 -7.692235378486693 118 125 123
-3.093992891191666 -0.281339309130895 -20.444513325689901 125 132 132
-8.030483733921907 -1.984567871692027 -15.351579178712621 139 130 122
-1.755442410967729 -0.624004341476615 -8.652206633755458 129 123 117
-0.744357229155874 -0.255029466546798 -5.414439528908726 124 121 120
-1.378188668534397 -0.724554279290038 -7.470971493522779 134 125 131
-2.123896046751927 -0.669367186429602 -9.148985998449385 134 132 125
0.388992564317381 -0.501543332136859 -10.588108825395409 116 111 108
-30.230307978997516 5.899127180639764 -53.125562421804425 39 37 34
-0.238556418352251 0.007205700261974 -9.800423278822299 141 137 130
-8.375808050379503 0.015027405708034 -24.294427282609352 64 61 67
-27.207193049461175 -4.092637140803567 -90.720974955652181 139 139 129
-2.046829846447458 -0.409620748959728 -14.523283164782438 133 132 127
-5.000920419022950 -0.341982697341220 -15.906522812303439 65 73 76
-28.195391763794717 2.470542559123657 -68.511054397408174 18 19 19
-24.045269509815849 7.832353588523437 -55.715170157487691 27 20 18
-22.131363841955341 8.074548505199932 -49.030127181888666 27 29 22
-3.603845813840221 -0.643113290868818 -10.209294343286713 145 142 135
-6.090106885047126 -0.487343738613741 -11.377192047219285 54 71 81
-0.769227973792975 -0.680031598362375 -8.704081741111232 137 136 123
-27.593734846533390 5.237391911963841 -50.433595619338796 28 26 29
-28.950054118757109 5.909105779633198 -42.400563157359230 19 20 21
0.313056068775683 -0.296050979479018 -14.101454027552487 131 128 123
-2.860583690173904 -0.224261385365473 -19.294724931073034 144 139 136
-8.463883025669682 0.011982233380570 -13.747860191065373 60 79 45
-28.667981580993743 5.308956153288861 -51.897210675536328 25 30 29
-1.317476505371972 -0.469136687308219 -10.998487718853967 146 140 138
-0.511719976595497 -0.001126790991078 -14.178437336692772 146 141 133
-6.382974156202459 -0.092424118092882 -19.771638606397239 69 72 67
-1.151079616189895 -0.755751795975162 -6.772379736884473 123 121 120
-24.855605851224574 1.572890198916544 -36.701043693554375 15 21 20
-9.694234104736795 -1.680774908123663 -31.449981170787400 135 129 121
-2.500653546400155 -0.737118126103971 -7.983532057331907 134 133 127
-4.354920726272538 -0.898051303659818 -10.198970642429623 132 128 131
-26.606739403502004 5.545440005612380 -52.523756135555161 19 19 17
-10.561537104084119 0.077814705638174 -23.362723024623747 63 70 76
-7.145210883809217 -0.403077390637088 -12.847226620859512 63 65 68
-0.331477025950456 -0.631766195753879 -10.296526205049538 143 143 126
-9.892947004944425 0.148967137141371 -26.756014287315132 72 76 78
-4.113216857236864 -0.680485420946533 -7.979325254619419 67 67 72
-29.978136592150069 3.234383915611272 -112.419357527769900 69 71 76
2.008589558877957 -0.701549541719366 -7.213694886534929 119 116 114
-7.148244515630028 -0.127770014195904 -18.650097109154004 67 79 94
1.861266441579782 1.636234305410697 -13.653842416917307 23 28 19
-3.722842503738529 -0.716438805968250 -6.917287726628975 59 61 64
2.427452866562097 -0.626833834422996 -8.464351949836477 126 102 87
-37.491152367684379 4.540608514963496 -64.244935107932150 20 20 21
4.658182408080465 -0.861798716977094 -9.915468414196136 71 61 57
-5.092895156965391 -0.602330018574792 -9.459770337639970 63 67 68
-31.091326193853551 3.433404714630263 -72.425858063703942 19 23 30
-4.915584863256897 -0.122462916858562 -22.381365324145374 159 157 151
-3.206057643546900 0.417617231982856 -29.506188481603736 154 150 142
-0.445098968292439 -0.583006165518934 -11.034472825138332 145 140 130
-1.761894894573666 -0.334659503221280 -15.415459980935369 140 138 130
-5.040762611123957 -0.622812151932077 -9.168184847932729 69 63 63
-4.230064547308022 -1.136299621010962 -12.430166953391826 130 133 132
1.192180056799504 1.170037719383617 -16.841596023419985 19 18 21
-2.512236149235659 -0.682660032535100 -8.151589744838155 150 136 133
-4.316317529592187 -0.697674083633930 -7.676589889852674 69 71 76
-17.072088014971705 0.689241544905710 -31.636076649400863 86 84 79
0.634717830108080 2.575978290513638 -18.596474500395516 12 15 12
1.541365562109682 1.916304185029247 -14.965804504335516 20 25 15
-4.824142809228888 -0.519503791225052 -10.875101890749468 74 79 83
-2.955088566845984 -0.423786533416793 -13.343180171603450 152 145 136
-3.328252672860065 -0.762460045140057 -7.721512115725607 132 129 123
-1.408630595408702 -0.095357214821835 -19.943817149997955 156 155 142
-0.952910935468957 -0.727330185792328 -8.302734412670722 147 135 125
-3.079426026705013 -0.629008325716515 -10.492752546208891 143 137 128
-0.180562603832156 -0.776310213801962 -7.426872971377827 120 118 121
-5.686505125895479 -0.451241081235205 -12.080296295232209 66 66 70
-22.161100157016644 3.321187961627355 -35.324341803611198 15 16 17
1.067156332598295 1.066024076174149 -17.379595168425311 117 114 90
-9.170470179972545 -0.361848046460899 -17.264518277497679 54 64 67
-3.775591339465146 -0.626177340365365 -10.824559254130383 145 141 144
-6.747890823695062 -0.429405616599204 -11.426222296057736 65 70 68
-7.356928931465052 -0.429446466696827 -12.479242277478797 68 71 76
-1.304604199415989 -0.208203222408704 -4.286249277872039 140 133 134
1.010901249248290 -0.302774006732782 -13.632680364476288 131 124 120
0.286138433905682 0.013602774474377 -18.127897447242646 124 121 124
-1.671249195330034 -0.036361503493954 -7.474998488147813 137 142 140
-6.654374800657585 -0.598307651147982 -10.544155428956202 69 76 77
-5.282491007995225 -0.566748959945494 -10.187959109283499 69 68 70
-19.770839616516643 1.011157203695776 -32.327850416153844 16 16 18
-4.183070332323255 1.038154547668239 -7.472572429553512 35 35 26
-1.859948458973223 -0.659414350652971 -9.443966852856786 140 128 128
-0.745709242148174 -0.426434589114707 -13.264962475535329 139 130 126
-7.332091851599715 -0.317543865195675 -17.129619394589401 63 69 78
-8.450774337154579 0.018492454969928 -28.273347833724582 66 61 67
-4.246423679137627 -0.518906964348852 -14.110119880448252 146 142 135
-2.015106263041072 -0.575927549139996 -10.628507142985718 124 120 117
-6.201283604182018 -0.267787114992793 -14.348875605442695 64 71 71
2.304165701501723 1.897468484502278 -14.198180094312409 20 22 12
-4.211645757093384 -0.372392429244684 -15.322317629516316 153 149 139
-9.570999272153276 -0.036096280613051 -15.237106443603841 50 67 34
-10.506167060325769 -1.069174347045793 -15.665044686966858 46 61 72
-14.642747038905529 1.785253885852368 -68.914970955048176 70 68 73
-0.630376637790914 -0.732125582864298 -8.159331349796171 124 120 118
-34.030683490219936 2.541987140132249 -57.502365042055636 18 23 27
-7.469497533431125 -0.304461453957372 -13.844893588241192 57 66 72
-2.208145776430321 -0.572261067697842 -9.739388683517296 139 134 124
-4.745577152230633 -0.660918709809181 -8.814270523514598 82 80 84
-2.941125537173412 -0.431613343166240 -14.652118289439928 143 144 140
0.975904790029802 -0.507171141196371 -10.736309218169701 118 109 104
-3.888692866448813 -0.696216445053184 -8.033262895676366 67 62 63
-7.353848638240257 -0.343084947108304 -13.736265634770792 73 75 76
-4.652262195950630 -0.208060331228127 -19.023938699808461 155 149 142
-3.103613797666476 -0.389293764749565 -15.526029088762201 148 143 142
-0.376656747140955 -0.013328022242861 -13.589367570207298 149 145 136
-1.056239087769392 -0.176041185697644 -4.634422361718484 141 140 133
28.528655207016957 -13.648443623562862 -91.336470566660466 119 116 102
-0.712020584255712 0.174506855619596 -25.436422055258227 88 94 96
-1.404153466267788 0.214390731445194 -15.047746493095088 158 155 150
0.791594204696172 -0.608754648303288 -9.147939367562662 119 116 100
-6.426862667804506 -0.438094603728148 -11.982529529779773 58 65 76
-1.216737513710344 6.519641487491066 -36.688285957279327 20 23 20
-0.551847387675456 2.248026976061771 -24.202461196549301 25 23 18
-4.973351522111408 -0.525009423338284 -11.535394712252833 80 79 80
-2.196818257838584 -0.234910224009252 -17.515281731736543 156 153 151
-1.999991554413993 -0.099839097735409 -7.716091863526559 160 153 151
-3.788630010552366 -0.452333985992774 -14.739402006216768 151 148 139
1.312993380420261 0.397366561532625 -18.248737272802614 21 19 21
-0.755724671749916 -0.675630352140116 -9.527154855969158 130 127 117
-0.747217512742938 -0.616560242895244 -11.400119646828996 133 124 114
-0.760809744177087 -0.385280456215101 -12.825254715106315 141 140 127
-1.643522684173187 -0.424683689793431 -11.637807369153457 132 130 124
-55.646670360110818 5.540825882777840 -102.112233796571360 31 37 51
-6.876579413572100 -0.301342277546330 -14.448404011294311 67 74 73
-3.924442118751892 -0.372040201090142 -14.505726102220466 141 141 135
-1.910192379855882 3.874878279680739 -32.222949034415180 19 16 15
-8.148850091297007 -0.269542942573292 -16.165085320717679 63 65 70
-5.816378896163144 -0.575911408229222 -9.662465761231648 63 63 64
-1.909146756804056 -0.506199451113650 -11.264935829365568 133 128 118
-0.307915110228226 -1.662171650864623 -17.632112720600329 131 118 112
0.522056500636008 3.041421830804290 -19.258118515441815 23 24 22
1.851294464425026 -0.677625566639950 -7.817377839765681 117 114 110
-7.654553840211219 0.244250373656168 -40.877122101341243 169 164 153
-21.984615568592059 1.328034364458937 -40.814698544844752 19 22 20
-1.334144358640652 -0.785603936032311 -6.795346241286143 123 127 125
1.800220820686371 -0.614639419396168 -9.035327315526130 128 134 117
2.587214716754687 -0.544029373470598 -7.190742811048122 76 62 57
-21.984663734560304 1.417165490085613 -37.747430319726476 36 41 36
-6.752309633110742 -0.495563299283736 -11.767672027996946 61 65 74
-0.826604049818033 -0.520177141895057 -10.859414177593900 127 127 123
0.423547582825176 -0.386840280351734 -12.619747615822472 121 111 117
-7.645001303366393 -0.488876806370848 -11.541860265005100 55 57 57
-7.743798125520342 -0.815101510445428 -16.308314851116513 55 57 58
-31.008851232212230 2.481108724800776 -44.154357107822285 15 18 20
-56.219645037416761 -8.767072768841938 -89.235670761490567 74 75 80
-8.445756858334454 -0.096220460281970 -18.990394585238445 58 63 68
-3.274752403049842 -0.517440615348793 -14.163471933300368 154 146 139
-1.448201791776000 -0.491613363866932 -14.827981345702751 145 139 130
-3.871349663516701 -0.261902350716350 -10.296363943468188 79 82 85
-1.230382859129460 -0.548758354016192 -10.762825148201191 146 139 140
0.444914744054348 2.496867695973738 -17.911207225956890 20 15 14
-6.260559957962944 -0.163500095679468 -21.169607383651329 75 81 78
-5.107315056032281 -0.584239539949127 -9.468672065470859 62 63 66
-5.202674398763739 -0.535946660307683 -10.654548012525140 61 65 67
-2.611655693432331 -0.570261227218479 -10.676501539843844 141 131 129
-32.978867361858768 3.028179348106355 -68.659038170492778 20 21 21
13.848445941537543 -5.935296284133877 -43.217621900999255 112 112 112
-30.579548726601669 3.179179169028893 -71.757566839499745 22 28 25
0.888330079899059 -0.213043218051632 -15.715564000379159 122 115 113
0.754617009178502 -0.415904080796634 -11.636325363059266 121 117 109
0.764240407189648 -0.221376020809606 -16.214807194103194 135 129 126
-19.793637666184228 0.588861217394754 -40.171054286816130 60 82 43
-3.337638519656909 -0.777570323311759 -7.187393240368506 128 126 118
-1.203057421326747 -0.485876920644465 -9.722952828513844 148 139 133
-1.292661992632973 -0.519881185713342 -12.215359653254087 145 140 133
-7.539652634040388 -0.468469918159964 -11.471639401222554 47 52 55
-1.017590194071258 -0.642884001555191 -10.659493652634552 149 131 127
-24.906536184850477 -4.061163024252997 -39.664571760017623 60 66 75
-5.611284067038469 -0.151712868635174 -22.937350569539827 162 159 151
-3.336679981407296 -0.326993814721225 -19.448420264661049 154 149 138
1.960604276922457 -0.537995652723856 -10.499666657016903 113 89 75
-9.204834501823353 -0.259111344458317 -15.315737213049447 65 67 72
-1.097473048731501 -0.738472601757370 -7.221808287681438 128 114 113
-3.445900242997961 -0.002275694971621 -21.665682904825406 163 156 143
3.907172727260534 -1.674166172175099 -12.827072743044328 113 109 109
-33.820664936346596 3.970725698061843 -60.551785003034979 23 22 24
-3.011372701909246 -0.298940135225938 -6.884713893324365 80 79 82
-5.819951202770618 -0.180320686493551 -23.490773152209375 163 156 152
-3.804923207653992 -0.527586249404703 -12.184120708809385 141 141 136
1.368277548258217 -0.487159046293243 -9.106911025190028 133 128 124
-3.181892770204210 -0.565503695899523 -11.235461280723246 149 145 134
-1.883577162294011 -0.701344274622895 -8.080346152732492 135 135 124
1.502877574145797 -0.639671101489516 -8.431988688965580 119 120 123
-16.352858980592529 -1.294722551710188 -24.303260822026981 65 64 69
0.163677006513488 -0.536776404396139 -10.363940534928766 126 115 101
-6.081283813381518 -0.364859933451413 -15.368416442338237 76 76 78
-34.017945911281515 6.064848214871327 -64.380527245336552 47 54 62
-3.040831074049633 -0.494591899248390 -12.333767791565917 144 143 130
-2.939764737300301 -0.478043783043582 -13.016986373864734 152 145 139
-8.357745247905623 -0.279911474978553 -14.941979283277330 73 67 71
1.289753371924042 -0.407172105341691 -12.752593861395054 131 126 122
-1.453506684535577 0.202395477739541 -16.680955480167579 170 170 161
-2.633941449241193 -0.509101340933048 -12.416089114696478 154 142 133
-0.573355090903033 -0.731519431870360 -8.446808292050044 133 119 119
-0.338053421135360 -0.624619484443391 -9.829281685283721 146 138 131
1.010759785964503 -0.293229466985433 -17.950855958688770 128 121 119
-0.510363334562594 -0.605654587168216 -10.199728859114812 121 122 121
-2.305302659577954 -0.582140941862171 -10.537552511742046 146 140 138
-2.405219474138465 -0.628474368943118 -9.704291869376828 133 127 132
-46.178807156964204 -10.156622129084054 -76.188154936674579 61 70 71
-12.448032904854553 0.388312794896368 -32.208951138847333 69 72 70
-0.743282941789289 -0.514322934401283 -11.065336272017175 123 124 121
