ply
format ascii 1.0
element vertex 739
property double x
property double y
property double z
property uchar red
property uchar green
property uchar blue
end_header
3.232432030738565 -6.184225790814882 48.044919161428219 66 83 65
-29.264399074472887 -9.913503050975413 48.045895562898792 39 45 35
1.577449980976891 2.142847732668048 64.060888598538554 169 164 164
2.787589628662997 1.492997584903113 54.867895833324283 114 91 79
4.419603245124764 -0.588126550709072 16.705490626662531 40 63 95
4.564100436756085 1.466291797361568 12.807554194817698 133 93 77
4.443481962020917 -0.318277505395952 6.860435189557173 82 78 44
4.606695668918246 -0.126843400203524 5.910208429533651 65 84 45
4.637558321115374 0.415479213434779 10.674403206700712 56 45 52
4.536570425641624 -0.284404695080746 6.624402900687590 20 35 29
4.912702300822308 0.914118642691403 6.623778683472111 89 100 108
4.243553072172698 -0.277717353065362 8.733091048642320 70 116 75
4.771154595574791 0.328953364911863 6.002587463178384 55 65 46
-2.151634848441724 1.876488110215383 64.061000686429423 204 200 188
1.412272490777561 1.707510109405722 12.007154616207604 91 107 109
-21.639110326843777 -8.752896247256306 42.707027955679663 151 149 150
4.278294179623101 -0.286335544992181 16.013053890845473 103 78 78
2.775051076969226 -0.806080694625476 5.054836742566154 63 42 18
-22.933834796367464 -3.490723393821051 54.909671623493644 45 87 85
4.268790300034716 0.143243382065598 8.935127618003746 34 45 60
4.382512259087860 -2.380158452480670 20.227765634326737 21 22 25
4.886474531638503 0.720666896764869 6.297907863204432 109 112 103
2.789517167812588 1.227750667057110 54.908899257798105 125 104 90
1.666183169919222 1.599662992834907 12.396635610234586 161 144 129
4.194635565422176 -0.344265119293143 8.732019092942831 47 60 31
6.462950350780466 -2.023431605224408 9.833267008303750 27 75 42
5.007509834517566 -1.471642507129042 12.007022241523838 51 67 38
4.886474581002605 0.877847382157179 6.297907933258245 85 65 46
4.496298573750999 -0.140034128181575 6.985208316057850 51 49 31
4.372844151016799 -0.259730097264500 8.538954777529238 39 45 39
4.066498450230483 0.651416026332966 27.453002322641634 176 143 135
4.539896172917018 -11.024922216537352 54.908842817830369 64 67 41
4.216165523300021 -0.297605040667403 25.613525657101945 97 89 83
4.913225778224713 -1.948613055123663 12.394376238747164 57 61 35
4.703069050520644 0.503136843164710 8.732003171880374 67 40 44
4.544653158998658 1.555993974649372 16.013046435672450 114 91 80
3.897728982210681 -2.551726049794806 13.251699326708929 61 50 24
4.655004827143123 0.033837775471542 5.410549571062752 44 61 28
4.337330132345338 -0.236053767746649 8.538955852110259 32 67 45
4.912641751339769 0.886590798243854 6.002583551291473 149 109 93
4.928795373805373 -2.372089332394041 11.300673482360478 76 52 50
4.034557621420883 1.562403501232747 18.296381722776935 50 50 56
4.789046450976663 0.465311024604414 8.935111467883946 55 52 37
4.056081435278653 1.275306356627919 29.564991988561562 139 110 99
4.651686551272866 -0.454834106345502 6.985887297972594 56 59 49
4.264366119822902 0.231241474625083 13.249222810035697 24 40 83
-25.105940428200718 -1.281919532276977 54.833914899701647 45 62 79
4.372423769343184 -1.782632757534766 22.607840670354495 79 68 33
4.349168130970917 -0.307082840519961 8.538955476285397 52 57 44
4.301098300912713 -0.025886470643524 13.249221576626343 52 45 32
4.278176039071673 -0.405520855064326 10.112451645216820 74 97 67
4.227633987254527 0.139410079830298 13.249224223844719 59 84 62
1.804055114807959 1.588228535074303 7.534112443671160 152 139 122
4.488324752672297 -2.192720349994425 15.372410229377376 39 56 66
4.052005747772705 -0.146087250164006 14.230675001242680 29 41 32
4.557556167022284 -0.081382749774196 6.196300831767269 37 46 48
2.789517163361158 0.923336150814656 54.908899163160491 111 92 85
4.153068411704937 -0.309810025397195 22.607847738556000 24 27 24
4.936766211824550 0.727072418936083 6.511472244165939 137 121 115
4.429866231089994 0.059129399536053 7.683940836739846 18 18 25
4.056081403515939 0.496709656921581 29.564991744517126 120 97 84
-6.319075287163422 1.475679046454928 64.006182899672226 152 150 137
4.218361568616913 -0.179367420215673 29.552934444282240 96 66 64
4.813258679045461 -1.908041254384423 16.705476954386437 68 74 62
4.314945093283344 -0.189666731531202 7.840800420306566 65 70 59
4.867242688595661 0.704792804840605 6.196827096405918 95 82 93
3.120790468226990 1.583624264902457 7.114646225337023 169 176 179
4.212596248521034 -1.159786607953018 17.469048271510591 65 64 40
4.231485940909314 -1.136967014244834 5.714312335051096 41 55 15
4.472938109576593 0.373438891283609 7.684769471130989 45 64 52
4.711546223133682 0.741029771844218 10.674401087249480 113 90 70
4.902399839385373 -2.234104398076354 11.643150240430270 51 54 40
4.856679422767522 0.296167989930959 6.098419143407202 40 49 36
4.308449597038027 -3.262874578321063 14.230672752524866 70 34 21
4.545923735638779 -0.571706814253402 6.297917833846077 36 60 33
5.377435168297208 -2.129730817551593 10.674380257283953 46 50 19
4.479798444571704 -0.515197555599319 6.195665316145654 45 73 48
8.861923305367773 -3.526943887287166 22.140905681650416 85 53 30
4.672338466461854 1.271305008109029 9.853073184466981 117 95 85
4.364145768226459 -0.393753928404011 12.396553224682872 39 71 52
4.679604056513600 0.112556573153649 6.002590095805127 31 53 32
4.729831321980454 0.270377463968121 5.649355169012452 25 53 41
4.714832668383364 1.332628462489885 9.149075398702838 117 99 95
4.467575133318150 0.204655785786792 8.175470157762213 51 60 33
4.210301801629290 -0.131421102935203 13.725067466151534 31 34 26
5.326460418418813 -2.201012486541292 17.469014332404900 47 48 41
5.228380047625626 -1.657834367499372 10.979449990667785 44 53 30
4.367022610569987 -0.551695707484804 9.605383393526729 56 58 36
4.659332323025164 0.090209287181057 5.649357196749797 39 49 57
5.560844302242858 -2.179861485597416 10.384281728602588 28 66 32
4.552821126004721 0.510405257261631 11.300681770255821 42 30 23
4.426753828098112 1.228132314512294 19.216233690249705 113 94 83
4.650007229396960 1.325392219091122 10.979468315485310 153 133 98
4.314524814381858 -0.325988468555594 10.977780937375140 57 90 77
4.712691408568765 0.554106599420078 9.851703090276686 83 77 65
5.322535464217513 -0.061418985058818 11.305289532098918 45 49 39
4.712691576236249 1.236984575232337 9.851703482968503 60 85 96
4.922421369500260 0.934976875619182 6.985196027004140 159 131 99
4.577760496564259 -0.557338881519372 7.248879650337674 50 66 47
-4.588948969917395 1.685673530805204 10.386109240809921 93 93 91
4.741141337350370 0.607849910588137 10.674400148818679 125 99 81
4.308424833129283 0.062968275357679 8.174534585803308 63 37 31
3.099250998626511 -5.851273092315656 48.044923272580952 43 56 39
4.623085202144372 -0.315326644866735 5.910208009475708 59 68 24
4.877742526397078 0.895311916937561 6.297908194408121 84 92 89
4.741329303833598 0.396938074297085 10.979465231782788 27 18 12
5.103071881537709 -1.974727708728978 12.396530506710926 64 63 32
-0.108208784734792 -0.023214958100698 0.993857094670357 119 107 99
4.728517845601242 0.576772470743448 7.841652543789652 109 106 99
4.969935541171204 0.416919300074997 6.196288921978504 58 61 57
4.476098078244127 0.179147617015006 12.809864091769859 35 36 18
3.864743448384273 0.160769650527822 32.014876240414289 131 124 117
4.672671072468423 -2.007297898720861 17.469034129423381 50 55 54
4.742455745458747 1.581977840062988 12.809856527128026 119 111 87
4.425664011350963 0.184534649072832 12.009069593901467 38 45 57
-4.608978239348169 1.738172522627714 14.233777605592531 93 101 107
4.655864143394600 -0.118648447169277 5.910207009257708 38 70 45
4.211621116434742 -0.300093549840425 17.464788999928743 63 72 58
4.623766957197808 0.167516588111867 5.488295740060758 52 76 47
4.421701329056291 -0.014016885413219 10.979474742875100 29 36 27
4.639474690023753 -0.298936772514288 5.910207530912836 53 61 30
4.674885656094252 1.273592236511774 7.683934012845849 114 86 74
4.642663645674852 0.561785025061708 10.112440959434709 76 66 66
4.268994824881738 0.130083749538371 14.230666332375009 36 55 70
4.835712110792993 0.416882032636984 6.985882064716319 41 28 22
4.510601281114901 0.303437779275245 10.385831843334648 27 35 40
-4.997301784120580 1.695757385196069 22.608124970892664 106 100 96
4.498957627051935 0.115406195974502 7.534030517545665 71 71 50
4.136437880161799 0.803722577381129 29.552937978272713 146 132 135
4.607910477683555 0.035624600602452 7.248878489176748 26 49 33
4.559666044809420 -0.339535377733597 5.566936015200246 60 78 61
4.242543170728307 -0.464718530723319 12.009074929004498 55 94 68
4.121731935045355 0.160239968287198 22.607848830351543 82 62 52
-2.753979760934046 -0.060251715325225 5.808128008872315 76 97 135
2.599344806205691 1.297384493481725 6.299728605617959 166 169 178
4.613390327597172 1.561932047615999 7.533230713495963 61 61 59
4.574738660924491 0.013122963232239 6.196300318682945 50 44 31
4.304088423383319 -0.180859407048530 8.733089254515566 30 57 27
4.834082116075539 0.546022050532941 6.297909318468601 156 127 140
4.017953114745004 -0.929521819658635 17.464798512367359 61 31 37
4.753663481230734 0.581421639375455 9.851701792041801 133 106 106
4.940834045503594 0.909133853582267 6.097899112252511 109 103 101
4.372344582026739 -0.526026178550143 8.537928776658715 98 98 58
3.805881179546640 -2.772163124180801 13.251702054676887 110 72 38
4.337829427608517 -0.416453417802369 10.385836835291297 33 53 51
4.721218024778561 -0.370174988163393 6.002589002098981 60 78 46
4.498392810303914 -0.190594887156551 6.402922415768492 95 79 71
5.133228455147036 -1.440205886765100 11.302463065941641 72 74 35
8.560307741684287 0.571879757192084 10.977648549430119 27 42 36
4.510928207091246 -3.074651835849991 21.351685659566247 67 80 66
4.142659047433233 -0.414776076572609 12.009077961468114 28 34 22
4.689337601896745 0.181751982551382 5.820621493393515 32 45 28
4.806449602479448 0.953030864979325 9.605369192423067 139 115 95
4.768078341228368 1.504700182368578 7.114596561164413 105 73 62
-5.142068575034568 1.716881204054851 27.453280660530748 125 118 99
4.525352462144192 -0.236882087876852 6.985207499631197 53 76 42
4.749163768854373 1.091937037249115 7.533226222940606 90 88 70
4.631883217884087 -0.091610082519557 6.985204329629553 37 57 37
4.700766481516232 1.241558437075170 9.371056262553864 126 108 93
4.483131324140945 -0.079362091021887 7.683939280534967 44 50 22
-6.069808616308976 -2.235154200274277 12.805842047001610 76 89 108
3.981135295616362 1.265218985793825 34.940966578225456 166 110 93
4.360713869755323 -0.479002369266450 6.985212466709806 20 33 25
4.492799681170266 -0.609010565782973 7.388324146808580 74 82 37
4.680447916344422 0.960098736890771 10.979467262168827 219 172 144
4.465428381277449 -0.284524647230008 34.940951498800779 81 79 79
4.650007197346017 1.112304400189176 10.979468235763516 138 106 97
4.725411101248173 1.150177733703494 10.977767090145502 136 98 87
4.309750878196260 -0.372483278801101 22.607842988021961 86 76 57
4.383081077497121 0.669746753575429 24.021010351253391 68 60 56
4.638060611539614 0.055725047600646 7.248877598915990 37 44 45
4.714351931188937 1.274205041304061 9.372293801980247 114 78 71
4.393706614002966 0.185360342476810 13.251685072442813 56 59 44
4.324998084440359 0.172342682164331 8.537929887653013 35 40 48
4.542470966515891 -0.176230447116742 5.410552842528632 62 109 92
4.526986494341520 -0.215499282758253 6.623789754836316 32 49 47
4.638510449468526 0.090910174651069 7.249614850186131 60 47 34
4.315158512643699 -0.485854593082640 10.979477819854710 84 36 29
4.445576650731107 -0.258993332293243 5.262254125673826 40 57 27
4.396017650556829 -0.265617430823157 8.537927856687693 65 82 54
4.742727253944544 1.563085822279300 13.251674996618597 102 83 73
2.100392441070676 -10.845577948636661 48.044951819070320 46 50 42
4.456727857300344 -0.662609758933101 7.841660320799590 58 54 32
4.458829540678321 -2.403424207451347 11.300689474028454 59 69 44
4.665227463612399 0.366497043495722 10.979467516776770 32 45 47
4.849111363393097 0.387382164051292 7.248871405698310 70 59 49
4.533975258335372 0.311894988536981 10.674406296318747 40 54 57
4.589584023606647 -0.056503310332581 6.297916362249132 14 21 14
4.845307219381614 -1.871621853345206 12.396538307916037 51 67 33
4.882044806381853 0.712398362409247 7.388312435041588 128 105 113
4.169151956683344 -0.192635812223396 14.778002881598917 64 58 49
4.725905335520829 0.569713678318365 10.384304851592153 83 71 60
2.787589758048969 0.656482437435641 54.867898568050506 119 88 80
4.435839452622858 0.308613943224401 7.533235182298594 38 40 41
4.411294607197556 0.598566861956312 13.249217271943101 187 141 108
4.240150275578108 -2.348967372641671 11.302489812835313 43 69 50
4.717497418270061 0.687667009289189 7.683932344502257 95 78 83
-4.610646695675866 1.728141662588903 15.372687301920179 105 105 104
5.014554046442607 -1.999989279382363 10.977760505785584 27 59 37
4.339164061470235 -0.338849351048433 15.372415256795859 52 82 79
4.459815078742516 0.008036411922621 10.111005464383819 51 78 68
4.621344602914470 -0.095517431812526 6.002591802167507 58 63 66
4.573019565275998 0.211469027987004 8.005084849050029 64 72 44
4.306204470447638 -0.115917257837971 8.004191666167243 26 52 56
4.846397525976068 1.139456929903867 9.605368073831491 123 112 102
4.697770531287323 0.519404799337543 10.385826273099168 76 46 29
4.919461657282567 0.920043432308050 7.248869542694294 133 105 78
4.277138914584375 -0.575991422488789 22.600752392753737 109 80 68
4.587168923854430 0.004716523951683 6.402919793781881 40 59 35
4.286508352241390 -2.340762393149040 11.300695198214052 26 41 31
1.425389071452178 1.625161061379282 12.394505484548217 160 145 137
3.565384451158143 -9.846708698270064 48.044908024001458 66 83 82
4.778713587966952 0.488056166886801 9.371053403016239 54 45 38
4.810342168541330 1.490902817809513 7.388315133808945 81 84 75
4.361747246748140 -10.206265086230797 48.013401534374111 52 71 91
4.554406312763269 -0.198142872885079 6.985206632627708 41 66 43
4.835712158583956 0.610596660928586 6.985882137315386 141 107 71
4.409885871759380 -0.588886658895201 9.147905407652891 36 64 39
4.349168192470387 0.119091659997290 8.538955602826569 63 82 69
-22.938069196767923 -3.254291021906164 48.045707595753328 32 47 50
11.452461940424246 0.645074107850438 14.059413892449884 40 43 30
4.396446795725169 1.171761814860436 16.705490550792682 91 62 49
4.887794045387869 1.098382440544478 6.740025353843102 115 99 103
4.007372300878939 -0.848497401323139 8.005848521819234 62 87 56
-23.466574716513790 -2.577467769351073 54.909687922303981 43 42 36
-31.442321006458542 -8.875827166437523 48.016122297716464 145 153 145
4.225417435646339 0.060031702754242 38.435340824186092 152 123 108
4.506430899299679 -0.398936118967908 8.005086666820844 53 84 73
4.446283693625974 -0.338934223748474 7.533235033964571 26 38 35
4.824027689463841 1.518614618318075 7.683929834567629 58 57 43
-28.513995344252187 -9.075450130615424 48.015966558456093 88 83 91
4.685538590264290 1.145753973669081 7.683933581504260 93 71 59
4.751659966591655 0.509750907200268 8.538943639841216 26 30 28
4.418882070519811 -1.112531141021848 11.645071230365330 29 39 25
4.261025297645641 -0.021697835127770 17.469047149429805 35 60 43
4.522456534357756 0.823501589809672 16.013046861535397 160 132 107
4.738638732769947 0.312903108850163 7.388316549421491 48 61 42
-26.150449630258883 -2.389037022576338 54.951802438077060 34 45 48
4.893018579444878 0.704792717485872 6.196826329844635 116 101 88
4.558842442670194 -1.929698655634816 12.009065000796474 51 75 30
4.695668256518649 0.762231466135968 10.979466732875176 155 127 115
4.333503567590787 -0.100558714114762 11.300689436501607 51 61 35
4.502179051324891 -0.196880490220717 7.115313420818053 32 47 33
4.142646057380690 0.164495984207584 16.709402447260892 66 66 34
4.596666541291158 -0.223126915574721 5.649359048885613 35 43 40
4.349169114121883 -0.069227207126596 11.300688879397157 9 19 23
4.268994975437031 -0.461711076736154 14.230666863778909 53 86 88
4.685538796672084 1.518615436991310 7.683933953759522 113 85 63
4.766323693321158 1.326177335685054 9.372292259308221 109 88 82
-4.478948541642855 1.654969175748581 13.251954968329677 95 95 102
4.471759993376211 -0.350395180207637 6.402923250624233 77 74 45
4.496653778526727 -0.222508741041533 5.262252643148494 36 60 46
4.490251562728086 -0.013453526939452 6.623790770670730 28 53 46
4.670278134191883 -0.435219752454101 6.097906869696421 35 47 24
4.488060197427902 0.089283091599243 7.533233636847223 64 89 80
4.343480954419550 0.115913786214131 13.725063517208385 35 29 25
4.924517640300651 0.395338583631262 6.402910038306972 50 58 47
4.827276455338815 0.453084842644626 6.403485218516402 42 37 40
1.734789430136359 1.588050787089615 7.684852659416795 123 130 126
-30.929231496875992 -8.981224550238718 48.045945866960146 56 56 51
4.592507071536927 0.319245723175155 10.672798879217549 39 49 48
-27.795272727813085 -8.101811653596018 42.707213153222312 95 134 135
4.780496064063145 0.893494966938497 7.533225161076159 143 111 92
6.152159565005415 -2.183209723559104 9.606628975499955 38 55 38
4.250138531029355 -0.209255791778988 10.112452547223294 73 66 47
4.617362113403069 0.401042111564882 12.807551826874581 69 74 47
4.610254860348784 0.182907987644503 7.114600481662047 47 47 26
4.660295916563340 1.139235070889993 11.643154690872715 176 128 99
4.312011343486611 0.015939726279571 10.674412898958870 29 37 41
-5.081639231167720 1.876490693124725 64.061088819866569 178 199 193
3.184744566558862 1.598728243140110 7.841699411839299 150 140 141
4.429866221686413 0.314806026241078 7.683940821729824 42 61 50
5.035887559084262 -2.104155115269317 17.469023132398835 58 73 78
4.717646290700274 0.696361953777963 7.841652914746056 113 88 80
4.678260773895031 0.317030864705131 7.248876406401910 26 28 24
3.263816376697607 -0.174538407572396 7.419500541807085 13 38 60
4.558171360919963 0.288204078775677 7.684766886800765 23 11 10
5.090732425354371 -1.854469822002802 12.007020304744724 47 47 44
4.790344159652226 1.123201381540739 9.147893421431990 113 107 81
4.778362809211214 1.710866091220272 22.600724779456325 37 41 47
4.550823389250411 0.266960419681978 8.005085533413034 47 57 29
4.648456861708665 1.092175499770062 17.469035797356888 115 104 90
4.625431790131017 -1.213855721772448 12.009063162744823 38 46 38
4.668582873558468 1.486317309106676 18.296353216994827 130 112 110
4.648110650158610 0.116026397232400 7.248877295284093 42 53 37
1.520491768456607 1.672290271000239 8.174626051120542 119 110 98
4.821926794782775 -2.204306113148629 18.301025353903572 61 69 60
4.326808864762367 -0.694353325381817 10.674412248039056 64 55 25
4.570070146668602 -0.088431702232533 6.740034310903110 85 96 55
4.530341318399249 -0.085018175666030 5.335372619802910 49 51 26
4.821697569860802 1.171515283257310 11.643149196315388 151 118 97
4.701358850897499 0.494617353160731 9.372293899885694 74 67 64
4.410550379164407 1.629281441412600 20.227766014043180 71 61 62
4.650053226569190 0.965891706116979 13.249208545948242 145 117 80
4.618155614263962 1.564220951946779 12.809860273939449 111 90 89
4.351100898656000 -1.920068782743179 16.709395534806561 88 90 86
4.546346405656291 1.111208626201335 12.807554552548982 123 92 89
4.519727431205119 -0.466919715733251 6.297918534430814 32 52 40
4.707086009795906 0.115915788316363 5.567875462400259 35 50 43
4.890531331723888 -0.993618591825963 6.860422651370364 55 73 36
4.338598050378060 0.020033144734267 13.251686686031393 35 45 44
4.882598333362068 1.548642203455890 6.511474387447262 105 80 72
4.484436422723694 0.963824240308886 12.396550026017886 107 97 88
1.606526074506301 1.694774724895317 6.623880129353553 109 111 96
1.472503282467446 1.681748789407397 8.539043272888506 131 134 129
4.253978617311180 -0.194596977712495 8.537932199656243 24 40 48
4.686605907590467 0.713340311055790 9.605372847255014 116 92 86
4.870118595358782 -1.249541203349929 11.643148946700482 53 48 24
4.868927261365147 0.405826179456016 5.910200860157372 51 66 56
4.759596872179937 1.281044498748534 7.389082705395036 121 107 83
4.289071555989843 0.106250585425186 11.643167370984445 67 73 31
4.792068768888476 1.582533894013659 7.683930858071574 48 45 46
4.579479623780053 0.043154350825069 7.684766168522383 37 45 36
5.019267591846060 -1.079457340463213 6.985193730771388 45 61 35
4.120505945729832 0.019218620454123 22.600759590640731 66 65 59
4.529087192771933 -0.204134965538127 6.860432634495314 76 68 34
4.833205189390108 0.501886295625694 7.534020642100630 91 84 71
7.657182785072336 -2.359460729777240 15.139091403809054 41 27 15
4.365948181720908 -0.281772845072764 7.683942873384686 41 70 28
4.571233606584026 -0.048903769994191 7.115311398271202 25 37 42
4.634877491468184 -0.399265468772637 6.196298699095382 121 63 31
4.912817104045776 1.571365242836718 7.840783248084654 86 78 57
6.691564513872253 -1.191416971854263 22.376699063219306 62 105 51
4.646260438992557 -0.726624812119225 5.487878461811556 44 59 32
4.489342651548424 -0.727840340676957 7.841659327735073 34 44 32
4.522456579922376 1.334026628302713 16.013047031026048 125 102 98
4.787807819551288 0.527348152525522 8.732000587298789 41 25 27
4.527466429507014 -0.108708520044249 5.410553263533632 65 77 48
-23.390468507541478 -6.306598734631172 54.909684461510132 53 67 40
4.371118925114732 -1.515796553687819 22.600749609220266 75 51 34
4.049999294310458 -0.530359284745625 16.709405035126220 20 36 36
4.768832231283568 0.715992874977271 10.112437212420312 112 99 91
4.586577226586573 -0.085244658726840 6.861089954514243 79 104 66
4.294636463203972 -0.387657812884845 10.385838146530855 25 29 21
4.477616228917093 -0.579153643202702 7.533234266654450 36 52 22
4.111962292159952 -0.550589962994887 14.233512216829450 59 92 55
4.308441064999824 -0.273226124038774 12.007044759353359 79 86 76
4.564884082089373 1.351132900013482 12.809861805476263 137 99 101
4.651688661340862 1.502888699637479 10.672797572449170 74 74 78
4.381022391025758 -0.358862065995288 10.385835548640259 29 40 48
4.343632263214709 -0.147875384142547 8.936249873376370 57 73 59
4.729381078615229 0.270865601325582 6.196295840833956 28 41 24
4.871252120510630 0.404216455702984 6.402911577037624 48 42 36
4.648413010799954 1.128280283146284 8.174524623556179 117 94 70
4.837838293794112 -1.265681702944627 11.643150075682568 10 21 16
4.837457634211323 0.438169125284361 6.511475030527214 39 30 33
4.567652515089073 -0.288490940091587 5.335764705820071 17 20 24
4.502263222798311 -0.379597108443062 6.297918998244946 16 56 42
4.275152045867537 -0.273226150929775 12.007045939577916 28 50 47
4.164167319621752 -0.433347008138950 17.469049950841555 33 32 26
4.696074661853390 1.517684030176160 10.672796125319348 133 105 79
4.561135210055794 -0.037037562061225 6.740670267466344 38 36 15
4.893511872223388 1.520334457537756 5.910200724392967 106 88 88
4.280769009944181 -0.069455404136718 12.809869915997195 47 54 25
-20.474143176784793 -3.520652520095784 48.045633440887521 47 73 92
4.694975019814192 0.724068074002827 10.977767865662468 120 100 95
3.996595348140989 1.094296432375365 38.275523141500088 113 73 51
4.477307980253857 0.616651497134479 14.781054348665467 55 83 87
1.019405265317340 1.633070137073584 22.607943036830591 168 153 143
4.425158973971787 -0.568290720205740 8.733085507247639 23 51 31
3.140579524500868 1.561118794795141 6.740713517593878 165 179 178
4.281689084167251 -0.284152267598081 8.936251698863666 52 75 60
4.798861514159534 1.312002493385173 7.248873376897674 128 120 87
4.458664941909737 -0.640764452259583 6.512078401752872 47 55 33
4.907014498584204 0.554021804314509 6.097899951773611 120 92 86
4.131908528929409 -0.736880947839924 10.977787610436664 23 27 31
5.047256875138815 -0.992071983139837 6.196287182240173 52 63 37
2.366754835455720 -9.780125421504621 48.044944124896979 23 30 29
4.757195988639571 -2.536982776080859 11.302474171555117 60 66 45
4.467244984285146 -0.866394197747258 6.985209647001278 48 47 30
3.581810353002124 -3.051296207631030 13.722455445374409 33 28 23
4.666935665162170 0.241198830284084 7.388318658339246 35 39 26
4.791424356890288 0.742130909120931 7.534021983809618 86 67 56
4.590813568967334 1.523819086699332 13.725056515253844 83 75 67
4.492253473327740 1.266622765236136 12.009067951493709 130 106 96
4.887945233640496 0.730279252123466 7.683927317759709 113 90 70
-4.447420750038770 1.653136610261129 7.841932766822140 78 73 67
4.926979549671765 0.915221402182519 6.196290328560123 107 98 68
4.648984804236362 -0.536546089180840 5.820622827849749 30 52 32
4.816659313553683 0.616486053768645 8.004176304709310 92 76 71
4.644155661228228 0.590462017614134 11.643155005524434 105 103 98
4.510928217252655 -2.897077556792505 21.351685709779105 76 65 56
4.383882478955401 0.017247191872247 8.004189270624028 36 52 35
4.673556850531591 -0.548696340649717 5.821092402282460 30 49 29
4.842678592689870 0.423874564563833 5.820617099093745 75 64 47
19.781652588062492 4.582018352398110 27.292701276348801 130 99 76
4.803079932664939 -3.249335644874775 20.227752690254274 108 126 141
3.933778050527902 -2.615535743397631 13.249240696908782 52 85 49
-4.605188902349846 1.728684114353982 11.645346464323303 93 94 94
4.675367104363857 0.725031530436941 7.684763534740414 127 99 75
4.425395400296454 -0.359822904453800 7.533235668351941 56 58 34
4.478001305028527 -0.396207682903315 7.840795629889318 28 21 25
4.706196671322076 0.555515244927807 8.005080974240585 123 106 89
4.231438490311249 -0.325855819824938 14.781061484758252 61 71 83
4.728518073232272 1.522616379783818 7.841652942573996 123 113 79
4.789622385800051 0.570674307525175 8.936236693475493 74 71 67
4.467172095737553 -0.610486642804297 7.533234603237053 69 84 48
4.476659745271934 -3.042360933378091 13.725058656944018 41 34 24
4.706279531862532 0.723461668868094 7.840788696185425 146 107 84
5.637218909804394 -2.052445796178709 10.110971167199372 36 38 26
4.288614832652145 0.501375325824563 25.622604955237644 152 126 110
-4.378248222165718 1.624136130499263 7.388624896889890 91 83 88
4.825575329606369 0.586324963726628 6.985198690223339 94 73 55
4.725411020680977 0.800159027050733 10.977766879608147 143 101 100
4.687886159601193 0.266835246492276 7.389084444178247 24 25 16
4.740199864322267 1.560936089279122 9.149074732244438 52 45 51
4.209486425513615 -0.599968594494319 12.396557838111969 57 64 71
6.227076382966031 -1.039935923863081 7.250176825667756 30 40 31
1.634930699405591 1.635261898533177 12.809950638522702 139 143 135
4.895206842372292 1.314459824051248 6.297907964660082 120 110 100
4.712116281726385 1.031271733512310 10.110997456625130 137 110 97
4.794255146171007 0.375450110501395 5.820618485857463 69 95 70
4.904664700452881 0.536787668150441 5.733704764222470 62 57 57
-4.821379374025439 1.699937343765688 16.009883480974395 125 120 121
4.208082475914928 1.585168272011030 10.112454450369679 151 85 69
4.782884515941123 0.328784922190228 6.403486494818889 59 57 41
4.825163810051628 1.315917969910056 5.733707429820426 85 71 58
4.685031494941481 0.468054864496326 7.841653807472914 95 90 72
4.511615545284688 -0.616086590287847 7.114603705409776 49 57 32
4.141995984561808 -0.506252332164418 12.007050911955613 97 66 31
4.714724258236736 0.564408988161734 8.935113775188736 52 48 34
4.857643455391500 0.586628211601440 8.537913655548751 79 72 82
-26.358596186034777 -2.577471847179783 54.909774835086779 35 38 59
4.580310471546738 -2.662261429886935 11.645066012852388 77 63 34
2.499935997757043 -9.447171281188179 48.044940217095487 28 31 34
4.740006314227665 1.291614703277582 9.851702664698674 107 87 76
4.576723418979876 0.369781120949162 9.853075735619246 52 22 17
4.605218588718314 0.633235284843854 14.233497676743029 157 129 106
4.538116931984697 -0.744708762182066 6.002594493718038 62 94 49
4.764225549460109 0.327715886720615 6.297911295187683 33 44 37
-27.880716372724194 -2.881893610098880 54.909820474646452 39 45 42
1.330787178912754 1.660828606194051 17.464921023424118 127 125 112
4.343480914062413 -0.321678640467263 13.725063383395685 62 81 28
4.618986537339826 -2.331145468263992 18.301031448468294 59 81 97
4.097060035924173 1.029433670142559 29.564990675238015 156 116 95
4.691514302328243 1.465722852003673 8.733078205180510 73 53 49
4.412778980616103 -0.667972430729379 7.840797806589645 60 93 73
4.832716588606753 0.580165495298330 7.533223479712012 86 76 63
-5.158017070977079 1.939842572460819 48.045174288838687 189 210 198
4.767118030686668 0.480372414512228 9.606671251521304 30 42 44
4.959069419821579 1.094198528667725 5.910198524390323 99 84 60
4.834608455842012 1.529568527281496 5.820617905902449 68 57 51
4.347681200198906 -0.328370117892805 10.111009326428869 45 79 51
4.620166230530946 -0.238793698761251 5.649358375351947 36 57 48
4.385493354309944 -0.395148738762820 9.853081263826647 79 89 70
4.241310560793040 -0.773527740966266 11.645076682345275 44 61 37
4.962974675219249 0.424702454827806 6.003083178111292 89 91 70
4.681951115299946 0.948198447550849 10.674402053501050 146 148 132
4.682416759626133 0.111455524952763 5.734167374160920 54 65 30
4.864541785657382 0.447197308968700 6.511474248992125 61 44 37
4.603961187513580 1.418966666405910 12.394384177961362 92 80 73
4.540662760113485 0.993626341772008 13.251680898701148 108 87 80
4.846989771117705 1.465243208386920 7.114594204582465 128 105 102
4.728970164460086 0.915112043764291 7.249612450131957 78 68 65
4.428270029392562 -0.459925231845545 8.004188167454512 70 78 66
4.923384271529481 0.375449869258909 5.820614769213470 28 49 37
12.214637672269721 4.339120970526926 20.549264869349290 134 86 74
4.677178963508772 0.302659705287500 7.388318358361201 39 46 34
4.484431190789306 -0.607249630393671 8.352278007826437 54 61 34
4.482060323633337 -0.273587089214617 5.262253075864211 38 50 57
4.523191137232058 0.021714396572468 6.196301809885570 41 50 30
4.260974440970160 0.947475967452779 29.564985705521504 134 102 63
4.449250878648273 -0.428542448372765 6.511486436571542 46 86 41
4.884023604766597 1.310426758011334 6.196291825436368 130 96 86
3.933145579045081 1.193348958471813 29.564995670909934 167 120 102
4.818961698597239 1.513006806398527 7.248872988177951 148 105 100
4.575813498338872 1.092175637103260 17.469037992054261 83 69 65
4.741962990865061 -1.147265374768258 12.009059662603240 66 75 39
4.532353480728120 -0.765807357383708 7.840794311735164 41 56 37
-28.032928153416410 -5.241146042840587 54.909824305404435 28 52 31
4.841067141247082 0.313822545136104 6.196292621714398 27 25 20
-21.287587793539618 -7.421215090720565 48.077701831603768 172 158 156
-25.768290896711676 -7.594455644575734 42.683500476079189 54 55 47
4.152466558796170 -0.140907117893664 13.722426595483885 39 47 54
-4.552429596483982 1.673339521222889 13.251957205116923 112 105 93
4.466909350044428 0.627732412297016 16.709392793697972 127 109 105
3.420764869414082 -3.223429464910656 14.230707468448532 39 37 17
4.369554987530862 0.196905023264560 12.809867316106880 14 19 17
3.993580624571243 -0.945198824770505 14.233515682551099 70 76 50
4.527510413094588 -0.888996643396069 7.248881428681639 67 72 51
4.764156292177655 0.509252257819176 8.733075644381886 44 46 43
4.841065279841214 -1.488287903846833 12.007028004740924 62 61 55
4.381781494956488 0.172563523353417 15.372414125967888 48 65 72
-4.371626004084030 1.669325041226476 10.112715700798667 93 93 89
4.324998111235701 -0.052555787090367 8.537929942453369 15 19 13
4.302970340667001 -0.538498834280873 9.851716695914671 44 60 44
4.459503397738816 -0.061403896629911 11.302483757437793 21 19 25
4.680447909695960 0.914437066149782 10.979467245766571 205 170 145
3.432203689804627 0.741200690151685 48.044915282247644 73 53 34
4.844343267908623 1.077809311651425 5.910201825037121 113 90 80
4.342427196348652 -1.014086408299336 12.009071760131530 30 35 25
4.467307019851513 -0.365344641824931 6.511485878889460 28 40 26
4.866783704266288 0.372269632207329 6.623779827179353 45 38 35
4.362730434497875 -0.192713733198221 7.533237451890268 82 91 57
4.528627179844690 0.155977684980780 8.005086162849933 39 66 35
3.972590831306544 0.926609146878288 29.552948067495180 144 109 115
4.726348762506807 0.499476342393352 9.851702645538609 52 44 40
1.438480438562719 1.690700617614055 10.979565726403624 109 108 87
4.564883959458520 0.285691696335191 12.809861443831354 20 42 29
5.643790171866930 -2.218515513918260 10.674372225020553 25 43 27
4.288614857538533 0.998584002930391 25.622605111527548 124 107 99
4.647669379557178 0.069834777049721 5.910207219710822 38 52 40
4.404110404880456 -0.220892656980724 6.511487660336448 37 54 42
4.526986584859555 -0.509384031946787 6.623789896990169 22 31 22
4.554537617457600 0.050833754722500 6.623788888100731 30 46 48
3.980583333557567 0.939349345719547 25.459170328098338 162 129 111
4.582641285042847 1.617493143328857 12.809861366055236 128 103 81
4.950734576348053 4.229443844285246 20.258502104939211 120 104 107
4.920564911589127 0.425483390764147 5.733704284281079 37 23 27
4.467107008951291 1.146226332439490 14.233502021346313 102 93 90
1.403413771522636 1.709246153468987 17.464917561837492 155 138 119
4.775931971921264 -0.336948450705351 21.345334444986324 89 70 35
4.832716617323835 0.715941517633730 7.533223529679626 133 101 78
4.077122530927000 -0.892451881569722 13.725071269266717 71 58 32
1.370526380277842 1.600397062151674 16.013142521337780 124 118 112
4.785534055057262 0.785422877904682 10.674398872584398 128 123 106
-4.540614427608067 1.696396991479475 11.645344491364817 113 100 88
5.892705473828517 -0.367742633594880 6.987380432485760 28 35 28
4.750409095852989 0.584290890398717 8.174521239177343 104 105 90
4.768183179419186 1.115373073740156 10.110995716552743 75 71 82
-28.132316278220578 -3.853629114321041 48.045863491348221 49 42 33
4.488457347274106 -0.601785556986785 10.112445250715986 62 77 62
4.121731845656945 -1.531940027707285 22.607848314575786 52 45 48
4.351100985938144 -0.692491808203347 16.709395885483957 25 51 34
-27.043549978617065 -2.577472812833664 54.909795416551738 31 43 46
4.831725082574546 0.743272891443197 6.740026780280721 101 80 68
4.713316235755918 1.107391410623418 9.853071886406276 130 94 79
3.996385831390454 -1.187236899959617 22.607852203099053 33 34 25
4.281840594257097 1.285280449781434 24.013016478447831 96 74 65
0.985731705077525 1.708888778232576 25.622705062360939 132 131 139
4.554406522746737 -0.750176303696667 6.985206978838065 69 55 30
4.207828148212689 -0.716442962030623 10.672812435603650 29 34 26
4.762868138700206 0.498647017790304 8.353251457536043 27 22 28
4.442759140582903 0.870728174904272 16.705488547674740 92 75 69
3.963872856132918 1.554234957063244 22.600766713490462 45 46 46
4.253929251816991 -0.424084902437455 15.372417807512299 47 64 56
4.253929265367801 -0.253613912609136 15.372417858918901 69 91 86
4.753185834484964 1.139457280292835 9.605371008415190 100 77 67
4.593144904754660 -0.566165059507742 6.985205697848155 33 39 29
0.569865253068384 0.428194124948836 12.822487763344906 152 171 142
4.927738229443847 0.916665378390131 6.511472594442894 95 81 77
-4.279844479861399 1.603083912881013 6.740327475253618 99 88 82
5.330590452186636 -3.300538947968143 18.894950340495004 68 60 31
4.871252238387742 0.901371958382091 6.402911748573813 101 80 80
1.374044939790124 1.702772124080249 12.396644520787607 115 115 114
4.862374952923278 1.496183152089907 6.402912443402630 111 92 84
4.816341097987957 0.688082570581259 6.985882746210940 119 78 68
4.961159798337471 1.109302781623167 6.985195013341987 111 102 80
4.740996714923639 0.961690603669270 11.643151812844886 152 125 119
1.327761120327611 1.538155366807233 6.742391228148467 127 121 114
4.289312965007912 -0.579471595550921 9.851717181578220 16 27 35
4.539531587231044 -0.166723023864354 6.511483700206395 15 26 34
4.858250061021508 1.542395223419691 6.196292769400532 103 82 76
4.607304703680941 0.307239103696207 9.606676004186738 76 66 53
4.730121128451934 -0.818804627376102 5.734165739981980 54 74 38
4.727344878362390 1.313184373346103 9.372293426848360 159 134 111
4.567784824851147 -0.142709311972971 5.567450140186868 40 70 50
1.519277127723200 1.689519227986599 8.732108790001089 119 110 112
2.950579973896482 1.575740878721563 6.511531829122264 167 122 113
-4.306827915121531 1.633678439359771 7.249179026292405 112 103 85
4.269804376196917 -0.629511477669952 14.233507422157265 31 47 22
4.232620591104098 0.129945824185390 15.372418621180948 31 44 69
-24.532055460875323 -1.055373959577551 54.909720420846568 35 36 42
4.467307028260612 -0.392429401095983 6.511485892065852 23 51 44
4.481528848071751 -0.584609838993414 6.860434233272666 42 40 24
4.228554268326035 -0.559393418344473 13.722424134799265 16 26 19
4.516148141615413 -0.519073143199212 6.402922047682933 30 25 15
4.309750915195419 0.285586565771229 22.607843191864923 70 85 88
3.309560343438566 -0.532614544344996 5.121453681058326 60 58 35
4.109659354997369 0.021915986600273 25.613531149004597 90 78 62
4.394979455520049 -0.448828254939570 8.004189165428505 39 36 25
-4.762782825273044 1.680970869665067 19.216511951683835 111 103 91
-26.867048085084193 -2.455196275152120 48.045825919015783 34 39 42
4.824027604162878 1.380123286370070 7.683929685573296 113 98 76
4.672686379259402 1.178424916523155 12.394381538948636 90 77 80
3.832035816627711 0.781997525018881 7.515249223277612 87 69 69
4.493088696247386 -0.777716210208496 6.098429676143452 23 33 23
-5.811526040842767 2.047591510760263 32.029277190596851 124 130 133
4.610408365845115 1.222232934060900 9.372296909363913 80 84 79
4.322321248505424 -0.723044681415022 8.352283081090931 77 85 44
4.593987130115631 1.532492049049663 9.606676864975810 81 71 66
4.644981961233810 -0.412905157134625 5.567447989589024 42 49 48
4.150015814750250 1.502127428369892 24.021017651232029 75 68 63
4.763060168263468 -1.300344548184207 14.233492329643585 32 37 27
3.365612982701562 -9.380575529133120 48.044914178716404 55 52 49
4.212131069136818 0.118172289991110 16.709400332430530 15 21 20
4.683246103507367 0.721877737371637 14.230650246676131 159 116 102
4.741141427502456 1.199760139032108 10.674400362174000 118 98 83
3.388148270039713 -0.078516784647741 7.116887103911271 36 54 39
4.894334990623121 1.097796402214398 6.623779329668405 100 96 97
4.429866440987721 -0.654634551147363 7.683941226551704 44 59 34
4.713861912642659 -0.679609362122373 5.733710449095040 34 42 31
4.713846946094142 0.467054533706224 9.606672850354784 51 43 41
4.518543952425016 -0.091164463710178 5.262251989278767 36 56 29
3.344319590065699 -0.213925189538035 11.947082992571371 68 90 56
4.631852124691383 1.333068404939763 11.302479031360543 115 118 111
4.249900956571736 1.368946378628061 24.021014593247362 61 50 52
4.574748344273509 0.861926111875995 17.464772385729436 90 81 79
4.628644881858079 0.365520163524870 10.112441315415870 26 36 34
4.467172360323112 1.593265940136954 7.533235113396856 129 118 99
4.191641808552518 -0.512688064195707 13.251690967427695 54 55 40
3.698565443836106 -8.248533108359526 48.044904500083817 18 40 47
1.793866322310648 1.613529967258351 7.248966761457388 118 120 125
4.661709897992056 0.842033330561121 14.781048850969770 91 91 90
4.288614870059149 1.247188343780483 25.622605190179094 138 118 100
4.435839568421702 -0.412044519401511 7.533235389482736 26 41 47
5.029772284772664 -2.228262220831078 10.977760626618789 53 54 47
2.801647704842985 1.371614447267376 5.192212719109010 163 158 169
4.497797063638255 0.370780046492729 14.781053650324418 47 66 81
-23.638462315215627 -8.363514484075095 42.683384471997989 63 73 46
-23.514780801483401 -1.181200240068074 42.887064306630506 86 61 44
4.611875567287139 1.623446900211430 11.643156835586110 122 105 94
4.713237826569449 0.660075602733302 9.605371986517927 92 79 72
4.999131805575397 -1.484711399778968 12.394372097861114 44 51 40
4.561135077856350 -0.906204837611918 6.740670065438598 45 55 32
6.255968150218693 -2.259340252455425 9.851658872060206 34 38 12
4.869010654990099 1.305727731893823 6.297908716299816 112 93 76
4.341842269142298 -0.620931277326782 7.533238350939118 34 42 28
4.689465525851113 1.383363634639228 9.149076182905262 116 82 64
4.579415280806789 -0.892102144291744 6.740034524231848 49 50 22
4.478063423435835 0.956682113791064 16.013048246713641 121 100 92
4.395450260735889 1.576557858270393 8.005090729909680 94 79 68
4.546229445779770 -0.798327770613152 8.733081810608427 41 59 47
4.640302697661808 0.995496591525762 14.777983915237769 140 116 93
4.278414433243910 0.410933221425432 22.607844177308440 105 86 72
4.466100168053423 0.801002511580958 15.369100349982446 187 148 109
3.113087449927017 1.566711362046030 6.511526863331384 178 170 167
3.706734776188502 -2.513677218890224 16.728327444620053 115 113 109
14.463746120498012 -4.259981848229144 27.470555365993373 47 55 21
5.759103862519415 -2.368587179888510 18.296311501193745 71 46 32
4.559933590824261 -0.085018162185219 5.335371766228582 31 23 14
4.928577688379177 0.899240251947707 6.860421113219548 125 95 87
4.547545556569866 -0.412482572698729 6.689512043527063 43 56 34
4.497457399794214 -0.303771955370845 5.410554171520820 40 43 35
4.782790389414799 -1.201692480063645 14.233491760696554 39 40 26
4.252214254217941 -0.716442861359943 10.672810941588988 36 51 34
4.856285629684345 1.374162256774473 6.097901858416948 127 101 85
4.431194681202321 -0.320203428472127 6.511486910248652 42 69 54
-4.267061506717194 1.669018511537649 7.249887199817503 75 76 71
4.381781487725545 0.087328048274930 15.372414099337826 36 70 43
4.433670295268847 0.978878938438694 16.013049595580686 119 121 112
6.004462668746036 -1.910434966815188 17.468993950172088 59 76 27
4.527948686470702 -0.069909792474327 7.249618108572827 28 51 57
-7.090711801864505 -1.742873335138844 21.352036826470123 51 55 67
4.651688597197501 1.354933302851318 10.672797409382067 116 105 102
4.526545459882164 1.610906375018811 6.097911645960092 96 92 79
-4.745741606963234 1.685066138872076 17.465217616264795 108 111 109
4.182070595706209 0.075196474126253 25.622608037920696 176 132 95
4.518804896093006 -1.218611219920456 12.396548325865950 42 39 21
4.615484805800890 -2.262431287821689 11.300683717649681 29 34 33
4.634877520377674 -0.485179727830462 6.196298740622398 25 65 38
4.759385598111876 -1.785699648388473 12.396540921473498 34 34 18
4.672253615307229 0.004275392618130 5.910206516791086 13 31 20
4.805558208060191 -1.556208733177550 11.643151783216275 46 48 33
4.177108521460096 0.183037673185261 32.028975327383286 186 133 110
4.806702208784334 0.253682665971777 6.196293608420008 82 105 72
4.885316737295399 0.553334591905001 5.910200418859420 89 64 48
4.915469695701023 -0.984797656041936 6.097900148606420 68 62 38
4.003675929400330 -0.484035639322727 16.709406449492871 49 76 45
4.316627710521628 -0.483868499657429 9.851716199363317 42 66 52
1.739965301022403 1.588723872389427 7.115397413055520 102 98 104
4.380413119229575 -0.509964937168027 10.384316614034807 29 40 36
4.260974412877438 0.291815729509309 29.564985500608799 138 114 118
4.549332566990088 -0.643123856355215 5.910210293570037 50 54 44
5.200958138732048 -2.323820886301723 10.384293536657855 33 40 15
4.636664376265837 0.277079845289198 7.389085980474595 25 38 25
-4.405641917059275 1.632104020035476 8.005359210766111 88 92 88
2.640783786920939 0.056288426108046 64.005170405376319 195 143 122
4.769092008874271 1.289498908997817 10.384303868744635 84 76 76
4.551599028057830 0.946887831439320 17.469038676213753 90 81 83
4.759607913013671 1.133714246694614 7.533225947103801 101 90 79
4.650613576238740 -0.596178522867115 5.734168136883768 18 36 36
4.291480114743403 -0.041621216274876 8.732015912297198 19 35 24
4.003153045395464 1.051484146374474 25.613536016151773 196 138 108
4.281177645259962 -0.761025858650346 8.935127841618670 28 42 31
4.633342010817501 0.393752484939697 9.605374461418942 77 91 63
5.658587646444113 -2.366492572953130 10.674371752243808 55 42 17
4.172250545907121 -0.854400166305704 13.725068404095003 52 73 41
4.724553195997655 0.792034364706287 12.007029879898473 143 135 137
4.519855360282596 -0.609183371969940 5.820626594608033 25 39 24
4.779611958316948 0.732885608744278 7.388315452946749 85 83 78
4.676527063879889 1.588210254179577 7.534025799308330 94 83 76
4.237045816595447 -0.445249201268920 10.385839868075799 49 82 58
4.269300421279718 -0.507150772751956 8.936252011410112 52 74 39
4.769841014396596 0.461481375391248 7.389082060550145 81 64 48
4.137002981317335 -1.062760119652402 18.301046373484876 38 36 37
4.904350524526337 0.489305263580816 6.298460511618075 84 68 68
4.613855316003915 0.209414933963929 7.534027106558300 35 53 33
-5.000038927197522 1.711402087361407 16.013335773803913 115 118 120
4.690367510594418 0.079651747613734 5.734167128127234 19 20 21
4.537999723275088 -0.270934789730193 7.249617751207880 49 60 49
-0.413764710212011 1.703083196228495 8.353409076866990 87 93 105
4.631041396435175 0.095212542818007 5.487878662492983 21 16 19
4.328861211497797 -0.498820935430841 8.005091971798452 26 33 36
4.726776095144281 0.968333464509981 10.112438570903688 106 81 74
4.852537898329316 0.823766882233902 5.910201457038718 109 78 61
5.004539388391942 1.327392880358774 6.623776308484148 86 78 67
4.862040163160202 0.666371886117749 7.389079379676964 94 77 85
4.191276138842179 -0.911477420858912 13.725067812899020 38 31 20
4.701359039065755 1.521074557511315 9.372294295198987 72 70 71
5.645735475732453 -1.742104001574963 11.645034084858654 32 30 17
4.466909244263303 -0.715653488711513 16.709392378900528 44 42 26
4.592299272561530 -0.025540568687854 6.196835012454192 23 32 24
4.299162438592791 -0.074594469698672 8.352283324200810 56 82 67
4.860278720217883 1.515301830675012 6.297909149775290 117 111 87
4.891102434213550 1.513426580291139 5.820616257546142 119 90 77
4.438596078610225 -0.324426121690609 6.003098527310220 46 44 36
4.412811884214358 -0.832251555378069 9.853080325216252 38 45 27
4.688501532122158 -0.411037459553431 21.351681080034172 80 87 75
-5.039525233590750 1.735214032640146 24.021295391620516 119 112 104
4.806206098936978 0.198933565537507 6.985199198380796 23 29 34
1.803416533863176 1.600265906012828 15.372492639900276 153 147 131
4.660787488606519 0.934041428295327 14.777983099603238 115 102 98
4.836148769758404 1.503945050569339 5.910202370821617 103 91 87
4.450451149937038 -0.832608544206928 6.097913478886089 82 77 40
4.807534018770296 1.415922838642642 7.114595311618733 128 104 94
1.587445485385454 1.604141406620237 8.004280063776076 140 146 154
4.728518041614127 1.403026913876544 7.841652887037192 114 96 78
-6.406883636576636 1.599137637814779 9.607011732676140 104 94 72
4.316458860828505 -0.275932768529622 7.248887203847485 35 41 37
4.673893804858293 1.505855736845567 9.606674447630445 124 107 89
4.263840869846059 -0.859817982796800 18.301042600598290 48 56 36
1.428235405094984 1.698262798809275 6.860529548210128 113 96 93
4.451168087913746 1.486497679942614 11.645071079797916 137 110 111
4.517044852607759 -0.482119137138023 8.004185506759290 28 35 24
4.374862395059265 0.309312268713342 14.781057345927037 49 40 43
4.773598592045815 0.271049929163709 6.402914384040510 66 69 39
5.561625499377345 -2.100991627674268 10.385799583712966 28 33 15
4.567710285479611 0.035624606614218 7.248879672673780 12 10 9
4.751885360862616 0.539634457556510 8.935112624844676 42 49 44
4.726343879936995 1.318142242961323 10.674400853311836 123 117 93
4.332663480020391 1.321892918171546 17.464782970988306 106 83 73
-5.486193431975492 -2.054314850400964 10.367489340860834 32 37 36
4.791905115030825 0.650664397508731 12.009058690218545 108 84 72
4.757196345254826 0.784680154512734 11.302475051567660 135 124 117
4.292485174824103 -0.897553917203126 12.009073299760523 37 48 26
4.295408276172183 -0.703075705777374 12.396555212810140 23 21 18
4.557660254607355 -0.095028370107388 7.248880000647142 33 34 20
3.184457951136593 -1.927282364791201 24.021045746397526 26 35 30
